0.010643	0.01067	0.010665	0.010626	0.010551	0.010439	0.010293	0.010114	0.0099062	0.0096724	0.0094171	0.0091442	0.0088569	0.0085584	0.0082516	0.0079392	0.007624	0.0073095	0.0069991	0.0066969	0.0064071	0.0061341	0.005882	0.0056547	0.0054551	0.0052848	0.0051444	0.0050326	0.0049473	0.0048851	0.0048425	0.0048164	0.0048042	0.0048046	0.0048175	0.0048433	0.004883	0.0049373	0.0050068	0.0050917	0.0051918	0.0053063	0.0054341	0.0055736	0.0057224	0.0058774	0.0060347	0.0061899	0.0063382	0.0064745	0.0065941	0.0066925	0.0067657	0.0068103	0.0068243	0.0068067	0.0067582	0.0066814	0.0065809	0.0064627	0.006334	0.0062026	0.0060761	0.0059608	0.0058617	0.0057814	0.0057202	0.0056762	0.0056457	0.0056237	0.0056048	0.0055839	0.0055565	0.0055194	0.0054705	0.0054093	0.0053359	0.0052521	0.0051601	0.005063	0.0049644	0.0048682	0.0047777	0.004696	0.0046245	0.0045637	0.0045122	0.0044676	0.0044263	0.0043841	0.004337	0.0042814	0.0042146	0.004135	0.004042	0.0039363	0.0038195	0.0036936	0.0035613	0.0034254	0.0032883	0.0031524	0.0030192	0.0028899	0.0027648	0.002644	0.002527	0.0024132	0.0023022	0.0021933	0.0020864	0.0019813	0.0018783	0.0017776	0.0016796	0.0015847	0.0014933	0.0014056	0.0013217	0.0012418	0.0011658	0.0010935	0.0010249	0.00095968	0.00089746	0.00083785	0.00078041	0.00072477	0.00067063	0.00061784	0.00056639	0.00051636	0.00046791	0.00042124	0.00037653	0.00033397	0.00029371	0.00025591	0.00022071	0.00018825	0.00015862	0.00013193	0.00010821	8.7461e-05	6.9606e-05	5.4516e-05	4.2003e-05	3.1827e-05	2.3716e-05	1.7381e-05	1.2533e-05	8.8944e-06	6.217e-06	4.2831e-06	2.9109e-06	1.9534e-06	1.2956e-06	8.4987e-07	5.516e-07	3.5412e-07	2.246e-07	1.4042e-07	8.6229e-08	5.1786e-08	3.0259e-08	1.7107e-08	9.3052e-09	4.8428e-09	2.3988e-09	1.1253e-09	4.9752e-10	2.064e-10	7.9996e-11	2.8841e-11	9.6318e-12	2.967e-12	8.3946e-13	2.1721e-13	5.1178e-14	1.0931e-14	2.1072e-15	3.6494e-16	5.6522e-17	7.7922e-18	9.5172e-19	1.025e-19	9.6872e-21	7.9959e-22	5.7363e-23	3.5595e-24	1.9012e-25	8.699e-27	3.3932e-28	1.123e-29	3.1381e-31	7.3698e-33	1.4478e-34	2.3682e-36	3.2108e-38	3.592e-40	3.3012e-42	2.4817e-44	1.5197e-46	7.5495e-49	3.0303e-51	9.7901e-54	2.5364e-56	5.2507e-59	8.6557e-62	1.1325e-64	1.1726e-67	9.5786e-71	6.157e-74	3.1065e-77	1.2277e-80	3.7987e-84	9.292e-88	1.9721e-91	6.0218e-95	4.3224e-98	3.9162e-101	3.1452e-104	2.1271e-107	1.2045e-110	5.705e-114	2.259e-117	7.4757e-121	2.0671e-124	4.7756e-128	9.2197e-132	1.4877e-135	2.0075e-139	2.2665e-143	2.1426e-147	1.6975e-151	1.1283e-155	6.301e-160	1.2832e-158	2.7643e-153	4.7246e-148	6.3887e-143	6.8179e-138	5.7296e-133	3.7844e-128	1.9612e-123	7.9631e-119	2.5304e-114	6.2871e-110	1.2206e-105	1.851e-101	2.1922e-97	2.0279e-93	1.4657e-89	8.2824e-86	3.662e-82	1.2683e-78	3.4449e-75	7.3497e-72	1.2338e-68	1.6328e-65	1.7072e-62	1.4134e-59	9.2901e-57	4.8608e-54	2.0304e-51	6.7917e-49	1.8251e-46	3.9538e-44	6.9288e-42	9.859e-40	1.1434e-37	1.0851e-35	8.4609e-34	5.4431e-32	2.9015e-30	1.2872e-28	4.7741e-27	1.4869e-25	3.9071e-24	8.7026e-23
0.0097692	0.0098186	0.009837	0.0098213	0.0097697	0.0096819	0.009559	0.0094031	0.0092176	0.0090062	0.0087728	0.0085213	0.0082548	0.0079766	0.0076895	0.0073966	0.0071011	0.0068067	0.0065176	0.0062383	0.0059735	0.0057278	0.0055057	0.0053105	0.0051448	0.0050094	0.0049036	0.004825	0.0047702	0.0047351	0.0047153	0.0047077	0.0047098	0.0047209	0.0047415	0.0047726	0.004816	0.0048728	0.0049443	0.0050309	0.0051327	0.0052494	0.0053804	0.0055242	0.0056791	0.005842	0.0060096	0.0061773	0.0063403	0.0064934	0.0066314	0.0067491	0.0068419	0.0069057	0.0069376	0.0069361	0.0069015	0.0068365	0.0067454	0.0066349	0.0065128	0.0063876	0.0062677	0.0061603	0.0060708	0.0060024	0.0059554	0.005928	0.0059162	0.0059147	0.0059177	0.0059193	0.0059149	0.0059005	0.0058737	0.0058333	0.0057793	0.0057132	0.0056374	0.0055551	0.0054706	0.0053881	0.0053117	0.0052448	0.0051894	0.0051457	0.0051124	0.0050865	0.0050635	0.0050388	0.0050072	0.0049644	0.004907	0.004833	0.0047415	0.0046334	0.0045106	0.0043759	0.0042326	0.0040843	0.0039344	0.0037856	0.0036404	0.0035	0.0033653	0.0032365	0.0031133	0.0029951	0.0028814	0.0027716	0.0026649	0.0025611	0.0024598	0.0023608	0.002264	0.0021695	0.0020773	0.0019874	0.0018997	0.0018142	0.0017308	0.0016493	0.0015696	0.0014913	0.0014142	0.001338	0.0012621	0.0011862	0.0011103	0.0010343	0.00095827	0.00088265	0.00080786	0.00073441	0.0006628	0.00059352	0.00052703	0.00046374	0.00040405	0.0003483	0.00029681	0.00024982	0.00020752	0.00017	0.00013723	0.00010911	8.5408e-05	6.5792e-05	4.9872e-05	3.7199e-05	2.7309e-05	1.9738e-05	1.4053e-05	9.8615e-06	6.8267e-06	4.6658e-06	3.151e-06	2.1044e-06	1.3902e-06	9.084e-07	5.8649e-07	3.7339e-07	2.337e-07	1.4323e-07	8.5538e-08	4.9521e-08	2.7641e-08	1.4795e-08	7.5536e-09	3.6603e-09	1.6754e-09	7.2103e-10	2.9047e-10	1.0906e-10	3.7999e-11	1.2234e-11	3.6238e-12	9.8328e-13	2.4333e-13	5.4674e-14	1.1104e-14	2.029e-15	3.3202e-16	4.843e-17	6.2671e-18	7.1604e-19	7.1885e-20	6.3105e-21	4.8206e-22	3.1889e-23	1.8178e-24	8.8865e-26	3.7074e-27	1.3136e-28	3.9338e-30	9.91e-32	2.0902e-33	3.6738e-35	5.3565e-37	6.4494e-39	6.3841e-41	5.173e-43	3.4166e-45	1.8317e-47	7.94e-50	2.7718e-52	7.7638e-55	1.7386e-57	3.1018e-60	4.3949e-63	4.9299e-66	4.3657e-69	3.0442e-72	1.6681e-75	7.1918e-79	2.4966e-82	8.3175e-86	4.9343e-89	5.7556e-92	7.1315e-95	7.6429e-98	6.8916e-101	5.2094e-104	3.2977e-107	1.747e-110	7.7408e-114	2.8679e-117	8.8816e-121	2.2991e-124	4.9749e-128	9.0004e-132	1.362e-135	1.7247e-139	1.8292e-143	1.626e-147	1.2128e-151	7.5997e-156	4.4774e-160	1.1406e-155	2.1881e-150	3.3182e-145	3.9678e-140	3.7327e-135	2.7573e-130	1.5966e-125	7.2359e-121	2.5639e-116	7.0956e-112	1.5328e-107	2.5835e-103	3.3969e-99	3.4845e-95	2.7896e-91	1.7439e-87	8.5198e-84	3.2563e-80	9.7489e-77	2.2897e-73	4.2257e-70	6.1403e-67	7.0395e-64	6.3824e-61	4.5877e-58	2.6215e-55	1.1943e-52	4.3508e-50	1.2716e-47	2.9918e-45	5.6863e-43	8.7627e-41	1.0991e-38	1.1264e-36	9.4708e-35	6.5608e-33	3.7604e-31	1.7912e-29	7.122e-28	2.3746e-26	6.6701e-25	1.5858e-23
0.0089154	0.0089813	0.0090172	0.0090198	0.0089873	0.0089193	0.0088168	0.0086821	0.0085183	0.0083291	0.0081181	0.0078889	0.0076448	0.0073887	0.0071235	0.0068525	0.0065792	0.0063076	0.0060422	0.0057881	0.0055501	0.0053334	0.0051422	0.0049798	0.0048481	0.0047472	0.0046753	0.0046291	0.0046038	0.0045945	0.0045967	0.0046066	0.0046223	0.0046434	0.0046708	0.0047063	0.004752	0.0048098	0.0048812	0.0049671	0.0050682	0.0051844	0.0053157	0.0054613	0.0056196	0.0057882	0.005964	0.0061426	0.0063193	0.0064884	0.0066443	0.0067813	0.0068938	0.006977	0.0070273	0.0070425	0.0070227	0.0069702	0.0068898	0.0067884	0.0066745	0.0065573	0.0064459	0.0063482	0.0062701	0.0062152	0.0061841	0.0061748	0.0061831	0.0062034	0.0062295	0.0062552	0.0062753	0.0062854	0.0062824	0.0062649	0.0062325	0.0061864	0.0061292	0.0060644	0.0059968	0.0059312	0.0058724	0.0058242	0.005789	0.005767	0.0057565	0.005754	0.0057544	0.0057519	0.0057407	0.0057155	0.0056721	0.005608	0.0055223	0.005416	0.0052913	0.0051518	0.0050015	0.0048448	0.004686	0.0045285	0.0043752	0.004228	0.0040881	0.0039557	0.0038309	0.0037133	0.0036022	0.0034969	0.0033966	0.0033004	0.0032076	0.0031173	0.003029	0.0029422	0.0028564	0.0027712	0.0026864	0.0026016	0.0025165	0.0024307	0.0023439	0.0022556	0.0021655	0.002073	0.0019777	0.0018793	0.0017777	0.0016729	0.0015654	0.0014559	0.0013452	0.0012343	0.0011242	0.0010159	0.0009104	0.00080856	0.00071124	0.00061923	0.0005332	0.00045374	0.0003813	0.00031621	0.00025861	0.00020846	0.00016553	0.00012944	9.9661e-05	7.554e-05	5.6373e-05	4.1429e-05	2.9994e-05	2.1405e-05	1.5066e-05	1.0468e-05	7.1843e-06	4.8745e-06	3.271e-06	2.1707e-06	1.4236e-06	9.2116e-07	5.8649e-07	3.6612e-07	2.231e-07	1.3205e-07	7.5517e-08	4.1508e-08	2.1813e-08	1.0904e-08	5.1603e-09	2.3009e-09	9.6229e-10	3.7581e-10	1.3645e-10	4.5862e-11	1.4206e-11	4.0378e-12	1.0484e-12	2.4753e-13	5.2907e-14	1.0189e-14	1.76e-15	2.7135e-16	3.7166e-17	4.5006e-18	4.795e-19	4.4728e-20	3.6352e-21	2.5615e-22	1.5572e-23	8.1275e-25	3.6241e-26	1.3739e-27	4.4068e-29	1.1902e-30	2.6941e-32	5.0865e-34	7.9735e-36	1.0331e-37	1.1013e-39	9.6185e-42	6.8526e-44	3.966e-46	1.8572e-48	7.0092e-51	2.124e-53	5.1494e-56	9.954e-59	1.5292e-61	1.8615e-64	1.7909e-67	1.3596e-70	8.1847e-74	4.0993e-77	2.2747e-80	2.5168e-83	4.3607e-86	7.2726e-89	1.0377e-91	1.2466e-94	1.2573e-97	1.0636e-100	7.54e-104	4.4759e-107	2.2237e-110	9.2426e-114	3.2128e-117	9.3393e-121	2.2703e-124	4.6163e-128	7.8535e-132	1.1185e-135	1.3344e-139	1.3346e-143	1.1203e-147	7.901e-152	4.6882e-156	4.4204e-158	9.439e-153	1.6006e-147	2.1387e-142	2.2464e-137	1.8513e-132	1.1949e-127	6.0315e-123	2.3781e-118	7.3167e-114	1.7555e-109	3.2831e-105	4.785e-101	5.4355e-97	4.8136e-93	3.3253e-89	1.7932e-85	7.5571e-82	2.4918e-78	6.4381e-75	1.3056e-71	2.0821e-68	2.6166e-65	2.5974e-62	2.0416e-59	1.2741e-56	6.3308e-54	2.5124e-51	7.9887e-49	2.0421e-46	4.2114e-44	7.0326e-42	9.5452e-40	1.0572e-37	9.5932e-36	7.1621e-34	4.418e-32	2.2617e-30	9.6513e-29	3.4487e-27	1.0367e-25	2.6339e-24
0.0080909	0.0081674	0.0082151	0.008231	0.0082133	0.0081615	0.0080769	0.0079614	0.0078182	0.0076507	0.0074624	0.0072565	0.0070359	0.0068036	0.0065625	0.0063157	0.0060668	0.0058202	0.0055806	0.0053533	0.0051436	0.0049567	0.0047967	0.0046669	0.0045686	0.004501	0.0044615	0.0044456	0.004448	0.004463	0.0044855	0.0045118	0.0045401	0.0045703	0.0046038	0.0046428	0.0046899	0.0047473	0.004817	0.0049004	0.0049986	0.0051121	0.0052415	0.0053865	0.0055461	0.0057186	0.0059008	0.006089	0.006278	0.0064622	0.0066353	0.0067909	0.0069226	0.0070249	0.0070934	0.0071253	0.0071204	0.007081	0.0070121	0.0069209	0.0068166	0.006709	0.0066079	0.0065218	0.0064571	0.0064176	0.006404	0.0064142	0.006444	0.0064874	0.006538	0.0065891	0.0066351	0.0066711	0.0066936	0.0067006	0.0066916	0.0066676	0.0066312	0.0065865	0.0065386	0.0064932	0.0064555	0.0064299	0.0064189	0.0064229	0.0064397	0.0064652	0.0064935	0.0065181	0.006532	0.0065291	0.0065047	0.0064558	0.0063813	0.0062823	0.0061615	0.006023	0.0058717	0.0057129	0.0055514	0.0053915	0.0052366	0.0050892	0.0049507	0.0048218	0.0047027	0.0045932	0.0044927	0.0044004	0.0043151	0.0042358	0.004161	0.0040893	0.0040196	0.0039506	0.0038815	0.0038113	0.0037393	0.0036648	0.0035871	0.0035054	0.0034189	0.0033269	0.0032286	0.0031232	0.0030101	0.0028886	0.0027588	0.0026207	0.002475	0.0023227	0.0021652	0.0020041	0.0018411	0.0016781	0.0015168	0.0013589	0.0012061	0.0010598	0.00092133	0.00079197	0.00067265	0.00056412	0.00046685	0.00038103	0.00030655	0.00024302	0.00018978	0.00014597	0.00011057	8.2506e-05	6.0655e-05	4.3952e-05	3.1408e-05	2.2148e-05	1.5424e-05	1.0614e-05	7.2219e-06	4.859e-06	3.2312e-06	2.121e-06	1.3712e-06	8.7033e-07	5.4018e-07	3.2632e-07	1.909e-07	1.0758e-07	5.8103e-08	2.9921e-08	1.4618e-08	6.7439e-09	2.9242e-09	1.1863e-09	4.4832e-10	1.5711e-10	5.0831e-11	1.5116e-11	4.1127e-12	1.0192e-12	2.2901e-13	4.6433e-14	8.456e-15	1.3765e-15	1.9935e-16	2.5559e-17	2.887e-18	2.8588e-19	2.4696e-20	1.852e-21	1.1997e-22	6.6795e-24	3.181e-25	1.2894e-26	4.427e-28	1.2812e-29	3.1107e-31	6.3061e-33	1.0625e-34	1.4809e-36	1.7001e-38	1.6004e-40	1.23e-42	7.6869e-45	3.8903e-47	1.5882e-49	5.2109e-52	1.3692e-54	2.8713e-57	4.7912e-60	6.3454e-63	6.6674e-66	5.626e-69	4.1682e-72	4.0298e-75	7.6547e-78	1.8659e-80	4.1518e-83	7.8693e-86	1.2576e-88	1.6908e-91	1.91e-94	1.811e-97	1.44e-100	9.5956e-104	5.355e-107	2.5017e-110	9.7803e-114	3.1993e-117	8.7564e-121	2.0055e-124	3.845e-128	6.1735e-132	8.3063e-136	9.3726e-140	8.8779e-144	7.0672e-148	4.7341e-152	2.6727e-156	3.7965e-155	7.1775e-150	1.0685e-144	1.2498e-139	1.1461e-134	8.2253e-130	4.6134e-125	2.0196e-120	6.8938e-116	1.8336e-111	3.7982e-107	6.1263e-103	7.6945e-99	7.5275e-95	5.7389e-91	3.4124e-87	1.584e-83	5.7473e-80	1.6323e-76	3.6349e-73	6.3587e-70	8.7561e-67	9.5131e-64	8.1748e-61	5.571e-58	3.0194e-55	1.3055e-52	4.5169e-50	1.2549e-47	2.8092e-45	5.0856e-43	7.4738e-41	8.9512e-39	8.7722e-37	7.0637e-35	4.6935e-33	2.5846e-31	1.1849e-29	4.5422e-28	1.4628e-26	3.9764e-25
0.0073035	0.0073852	0.0074399	0.0074647	0.0074578	0.0074191	0.0073497	0.0072517	0.007128	0.0069817	0.0068161	0.006634	0.0064381	0.006231	0.0060155	0.0057945	0.0055719	0.0053519	0.0051395	0.0049401	0.0047593	0.0046021	0.004473	0.0043746	0.0043079	0.0042715	0.004262	0.004274	0.0043016	0.0043384	0.0043793	0.0044205	0.0044603	0.0044988	0.0045378	0.0045797	0.0046274	0.0046836	0.0047506	0.0048302	0.004924	0.0050334	0.0051592	0.005302	0.0054613	0.0056359	0.0058232	0.0060194	0.0062196	0.0064176	0.0066068	0.0067799	0.0069299	0.0070503	0.007136	0.007184	0.0071937	0.0071674	0.0071103	0.0070302	0.0069367	0.0068403	0.0067514	0.0066788	0.0066294	0.0066071	0.0066127	0.0066441	0.0066968	0.0067647	0.006841	0.0069188	0.0069918	0.0070549	0.0071042	0.0071371	0.007153	0.0071528	0.0071393	0.007117	0.0070916	0.0070694	0.0070562	0.0070568	0.007074	0.0071078	0.007156	0.0072136	0.0072741	0.00733	0.0073737	0.0073981	0.0073981	0.0073702	0.0073132	0.0072285	0.007119	0.0069894	0.0068454	0.0066929	0.0065374	0.006384	0.0062366	0.0060982	0.0059707	0.0058552	0.0057522	0.0056617	0.0055831	0.0055155	0.0054576	0.0054078	0.0053641	0.0053244	0.0052869	0.0052497	0.0052112	0.00517	0.0051248	0.0050743	0.0050172	0.0049522	0.0048778	0.0047927	0.0046952	0.0045841	0.0044581	0.0043163	0.0041581	0.0039838	0.003794	0.0035902	0.0033742	0.0031486	0.0029159	0.0026791	0.0024411	0.0022049	0.0019732	0.0017486	0.0015337	0.0013307	0.0011412	0.00096692	0.00080888	0.00066772	0.00054365	0.00043637	0.00034521	0.00026908	0.00020664	0.00015635	0.00011657	8.566e-05	6.2068e-05	4.4368e-05	3.131e-05	2.1825e-05	1.5037e-05	1.0242e-05	6.8954e-06	4.5843e-06	3.0044e-06	1.9356e-06	1.2215e-06	7.5183e-07	4.4913e-07	2.5909e-07	1.4358e-07	7.6042e-08	3.8298e-08	1.8254e-08	8.1943e-09	3.4487e-09	1.3546e-09	4.9428e-10	1.6682e-10	5.1833e-11	1.4761e-11	3.8347e-12	9.0461e-13	1.9287e-13	3.6989e-14	6.3503e-15	9.7127e-16	1.317e-16	1.5754e-17	1.6544e-18	1.5176e-19	1.21e-20	8.3437e-22	4.9516e-23	2.5165e-24	1.0898e-25	4.0025e-27	1.2405e-28	3.2288e-30	7.025e-32	1.2717e-33	1.9065e-35	2.3565e-37	2.391e-39	1.9828e-41	1.3385e-43	7.3248e-46	3.2372e-48	1.1512e-50	3.2828e-53	7.4833e-56	1.3607e-58	1.9774e-61	2.3547e-64	2.6644e-67	4.5303e-70	1.3546e-72	4.5025e-75	1.3288e-77	3.3372e-80	7.081e-83	1.2668e-85	1.9082e-88	2.4173e-91	2.5726e-94	2.298e-97	1.7216e-100	1.081e-103	5.6862e-107	2.5048e-110	9.2381e-114	2.8525e-117	7.3749e-121	1.5969e-124	2.8972e-128	4.4067e-132	5.6236e-136	6.0265e-140	5.4294e-144	4.1173e-148	2.632e-152	1.5631e-156	2.9949e-152	4.9529e-147	6.4319e-142	6.5453e-137	5.2102e-132	3.2392e-127	1.5708e-122	5.936e-118	1.7467e-113	3.9999e-109	7.1273e-105	9.8818e-101	1.0663e-96	8.9599e-93	5.8668e-89	2.9964e-85	1.1951e-81	3.728e-78	9.1095e-75	1.7469e-71	2.6344e-68	3.1314e-65	2.941e-62	2.1883e-59	1.2935e-56	6.093e-54	2.2943e-51	6.9287e-49	1.6841e-46	3.3066e-44	5.2641e-42	6.8214e-40	7.2242e-38	6.2786e-36	4.4972e-34	2.6662e-32	1.3142e-30	5.4102e-29	1.8686e-27	5.44e-26
0.006559	0.0066417	0.0066994	0.0067293	0.0067301	0.0067018	0.0066455	0.0065634	0.0064581	0.0063326	0.0061897	0.0060317	0.0058611	0.0056801	0.0054912	0.0052973	0.0051019	0.0049094	0.0047247	0.0045534	0.004401	0.0042728	0.004173	0.0041041	0.0040665	0.0040584	0.0040755	0.0041122	0.0041618	0.0042178	0.0042749	0.0043292	0.0043792	0.0044253	0.0044693	0.0045138	0.0045619	0.0046165	0.0046802	0.0047555	0.0048443	0.0049486	0.00507	0.0052096	0.0053676	0.0055432	0.0057343	0.0059373	0.0061472	0.0063576	0.0065613	0.0067503	0.0069168	0.0070538	0.0071554	0.0072182	0.0072416	0.007228	0.0071828	0.0071144	0.0070329	0.0069492	0.0068741	0.0068169	0.0067848	0.0067816	0.0068082	0.0068624	0.0069396	0.0070334	0.0071366	0.0072421	0.0073433	0.0074345	0.0075113	0.0075711	0.007613	0.007638	0.0076491	0.0076514	0.007651	0.0076548	0.0076693	0.0076995	0.0077482	0.0078155	0.0078984	0.0079917	0.0080881	0.0081793	0.008257	0.0083137	0.0083437	0.0083433	0.0083114	0.0082492	0.0081602	0.0080494	0.007923	0.0077875	0.0076493	0.0075139	0.0073859	0.0072688	0.007165	0.0070763	0.0070032	0.0069462	0.0069046	0.0068775	0.0068632	0.0068597	0.0068642	0.0068741	0.0068867	0.0068994	0.00691	0.0069162	0.0069164	0.0069084	0.0068902	0.0068596	0.0068143	0.0067517	0.0066692	0.0065644	0.006435	0.0062794	0.0060964	0.0058857	0.0056481	0.005385	0.0050991	0.0047936	0.0044724	0.0041397	0.0038001	0.0034582	0.0031186	0.0027855	0.0024632	0.0021552	0.0018649	0.001595	0.0013475	0.0011239	0.00092506	0.00075102	0.00060118	0.00047437	0.00036891	0.00028272	0.00021353	0.00015896	0.00011667	8.4457e-05	6.0335e-05	4.256e-05	2.966e-05	2.043e-05	1.3908e-05	9.3528e-06	6.2044e-06	4.0509e-06	2.5949e-06	1.6244e-06	9.892e-07	5.8308e-07	3.3098e-07	1.7999e-07	9.3299e-08	4.587e-08	2.1286e-08	9.2796e-09	3.7828e-09	1.4353e-09	5.0459e-10	1.636e-10	4.8696e-11	1.3244e-11	3.2761e-12	7.3355e-13	1.4796e-13	2.6758e-14	4.317e-15	6.1835e-16	7.8247e-17	8.7039e-18	8.4688e-19	7.1717e-20	5.2596e-21	3.3239e-22	1.8011e-23	8.3274e-25	3.2689e-26	1.0842e-27	3.0239e-29	7.058e-31	1.3723e-32	2.2123e-34	2.9441e-36	3.22e-38	2.8821e-40	2.1025e-42	1.2451e-44	5.9638e-47	2.3022e-49	7.1413e-52	1.7776e-54	3.5727e-57	6.0683e-60	1.0825e-62	3.1421e-65	1.3798e-67	6.1399e-70	2.3919e-72	7.9352e-75	2.2297e-77	5.2958e-80	1.0616e-82	1.7935e-85	2.5509e-88	3.051e-91	3.0657e-94	2.5858e-97	1.8296e-100	1.0854e-103	5.3963e-107	2.248e-110	7.8455e-114	2.2941e-117	5.622e-121	1.155e-124	1.9905e-128	2.8794e-132	3.4995e-136	3.5771e-140	3.079e-144	2.2348e-148	1.3699e-152	1.1711e-154	2.1318e-149	3.0646e-144	3.4511e-139	3.0386e-134	2.0886e-129	1.1193e-124	4.6719e-120	1.5176e-115	3.8344e-111	7.5337e-107	1.151e-102	1.3678e-98	1.2648e-94	9.1078e-91	5.1118e-87	2.2389e-83	7.6629e-80	2.0528e-76	4.3122e-73	7.1175e-70	9.2514e-67	9.4926e-64	7.7092e-61	4.9693e-58	2.5499e-55	1.0449e-52	3.4307e-50	9.056e-48	1.929e-45	3.3278e-43	4.6679e-41	5.345e-39	5.017e-37	3.8763e-35	2.4761e-33	1.3134e-31	5.8111e-30	2.1545e-28	6.7243e-27
0.0058615	0.005942	0.0059997	0.0060321	0.0060382	0.0060183	0.0059736	0.0059062	0.0058186	0.0057133	0.0055927	0.0054589	0.0053137	0.0051592	0.0049973	0.0048307	0.0046628	0.0044977	0.0043405	0.0041965	0.0040714	0.0039704	0.0038976	0.0038552	0.0038434	0.0038598	0.0038999	0.0039574	0.0040256	0.0040978	0.0041685	0.0042342	0.0042933	0.0043463	0.0043949	0.004442	0.0044905	0.0045437	0.0046045	0.0046754	0.0047593	0.0048584	0.0049751	0.005111	0.005267	0.0054429	0.0056368	0.0058453	0.0060634	0.0062845	0.0065008	0.0067036	0.0068846	0.0070359	0.0071513	0.0072274	0.0072632	0.0072616	0.0072283	0.007172	0.0071033	0.0070337	0.0069741	0.0069342	0.0069212	0.006939	0.0069884	0.0070671	0.0071702	0.0072912	0.0074225	0.0075568	0.0076868	0.0078067	0.0079118	0.0079992	0.0080679	0.0081192	0.0081564	0.0081851	0.008212	0.0082445	0.0082894	0.0083521	0.0084353	0.0085388	0.0086594	0.0087913	0.0089266	0.0090566	0.0091724	0.0092664	0.0093323	0.0093666	0.009368	0.0093379	0.0092799	0.0091995	0.0091032	0.0089979	0.0088905	0.0087873	0.0086934	0.0086129	0.008549	0.0085038	0.0084784	0.0084732	0.0084879	0.0085211	0.008571	0.0086348	0.0087092	0.0087908	0.008876	0.0089617	0.0090447	0.0091223	0.0091918	0.0092504	0.0092952	0.0093227	0.0093291	0.0093105	0.0092627	0.0091817	0.0090638	0.0089058	0.0087056	0.0084622	0.0081758	0.0078479	0.0074816	0.0070809	0.0066512	0.0061983	0.0057287	0.0052495	0.0047673	0.0042891	0.0038212	0.0033696	0.0029396	0.0025357	0.0021616	0.0018201	0.0015131	0.0012413	0.0010045	0.00080161	0.00063066	0.00048908	0.00037386	0.0002817	0.00020925	0.00015329	0.00011078	7.9016e-05	5.5661e-05	3.8739e-05	2.6643e-05	1.8103e-05	1.214e-05	8.0212e-06	5.2074e-06	3.3099e-06	2.051e-06	1.2331e-06	7.1571e-07	3.9895e-07	2.1247e-07	1.0757e-07	5.1521e-08	2.3229e-08	9.8129e-09	3.8658e-09	1.4136e-09	4.7756e-10	1.4836e-10	4.2187e-11	1.0927e-11	2.5661e-12	5.4368e-13	1.0343e-13	1.758e-14	2.6567e-15	3.5519e-16	4.1804e-17	4.3097e-18	3.8722e-19	3.017e-20	2.0284e-21	1.1709e-22	5.7747e-24	2.4212e-25	8.5889e-27	2.5653e-28	6.4207e-30	1.3404e-31	2.3235e-33	3.3293e-35	3.9262e-37	3.7948e-39	2.9941e-41	1.9211e-43	9.9896e-46	4.1984e-48	1.4264e-50	3.9695e-53	9.757e-56	2.8002e-58	1.3136e-60	8.0742e-63	4.7524e-65	2.4326e-67	1.0623e-69	3.9404e-72	1.2389e-74	3.296e-77	7.4092e-80	1.4054e-82	2.2466e-85	3.0232e-88	3.4212e-91	3.2531e-94	2.5973e-97	1.7402e-100	9.78e-104	4.6091e-107	1.8213e-110	6.0344e-114	1.6768e-117	3.9087e-121	7.6477e-125	1.2568e-128	1.7363e-132	2.0184e-136	1.9767e-140	1.6332e-144	1.1401e-148	6.7359e-153	8.5285e-152	1.353e-146	1.6811e-141	1.6326e-136	1.2374e-131	7.3098e-127	3.3619e-122	1.2028e-117	3.3459e-113	7.2343e-109	1.2157e-104	1.5882e-100	1.6137e-96	1.276e-92	7.8595e-89	3.7754e-85	1.4163e-81	4.1556e-78	9.5542e-75	1.7247e-71	2.4499e-68	2.7449e-65	2.4322e-62	1.7091e-59	9.5519e-57	4.2593e-54	1.5204e-51	4.359e-49	1.0074e-46	1.884e-44	2.8616e-42	3.5445e-40	3.5949e-38	2.9979e-36	2.0646e-34	1.1793e-32	5.6126e-31	2.2356e-29	7.487e-28
0.0052134	0.0052896	0.0053453	0.0053786	0.0053886	0.0053759	0.0053418	0.0052882	0.0052175	0.0051318	0.0050332	0.0049232	0.0048032	0.0046748	0.0045396	0.0044	0.0042589	0.0041205	0.0039895	0.0038713	0.0037714	0.0036951	0.0036462	0.0036268	0.0036368	0.0036735	0.0037322	0.0038066	0.0038896	0.0039748	0.0040569	0.0041322	0.0041993	0.0042586	0.0043119	0.0043617	0.0044112	0.0044635	0.0045218	0.0045891	0.0046685	0.0047629	0.0048752	0.0050075	0.0051614	0.005337	0.0055328	0.0057457	0.0059705	0.0062003	0.0064268	0.006641	0.0068338	0.0069969	0.0071239	0.0072111	0.007258	0.0072674	0.0072456	0.0072017	0.0071467	0.0070923	0.0070498	0.007029	0.0070369	0.0070775	0.0071514	0.0072561	0.0073865	0.0075358	0.0076963	0.0078599	0.0080195	0.0081685	0.0083023	0.0084176	0.0085138	0.0085923	0.0086569	0.0087136	0.0087698	0.0088332	0.008911	0.0090085	0.0091285	0.0092705	0.009431	0.0096037	0.0097806	0.0099524	0.01011	0.010246	0.010354	0.010431	0.010475	0.010487	0.010472	0.010435	0.010383	0.010323	0.010263	0.010208	0.010166	0.01014	0.010136	0.010154	0.010198	0.010266	0.01036	0.010478	0.010617	0.010773	0.010944	0.011124	0.011309	0.011496	0.011681	0.01186	0.012029	0.012184	0.012322	0.012437	0.012525	0.012578	0.01259	0.012557	0.01247	0.012327	0.012122	0.011853	0.011521	0.011125	0.01067	0.01016	0.0096013	0.0090026	0.0083725	0.0077206	0.0070569	0.0063912	0.0057332	0.0050919	0.0044754	0.003891	0.0033446	0.002841	0.0023835	0.0019743	0.0016138	0.0013013	0.0010349	0.00081147	0.00062731	0.00047807	0.00035919	0.0002661	0.00019443	0.00014017	9.9756e-05	7.0114e-05	4.8685e-05	3.3396e-05	2.2619e-05	1.5105e-05	9.9235e-06	6.3941e-06	4.0248e-06	2.4638e-06	1.4595e-06	8.3237e-07	4.5467e-07	2.3665e-07	1.1678e-07	5.4365e-08	2.3761e-08	9.7036e-09	3.6851e-09	1.2953e-09	4.1939e-10	1.2449e-10	3.3719e-11	8.2929e-12	1.8431e-12	3.6834e-13	6.5872e-14	1.0489e-14	1.4799e-15	1.8406e-16	2.0082e-17	1.9122e-18	1.5813e-19	1.13e-20	6.9423e-22	3.6492e-23	1.6331e-24	6.192e-26	1.9796e-27	5.3114e-29	1.1904e-30	2.2188e-32	3.4239e-34	4.356e-36	4.5504e-38	3.8882e-40	2.7086e-42	1.5351e-44	7.0983e-47	2.7433e-49	9.9161e-52	4.577e-54	3.267e-56	2.7222e-58	2.1006e-60	1.4061e-62	8.051e-65	3.9275e-67	1.6288e-69	5.733e-72	1.7097e-74	4.3132e-77	9.1927e-80	1.6531e-82	2.5052e-85	3.1962e-88	3.4301e-91	3.094e-94	2.3443e-97	1.4914e-100	7.9632e-104	3.5683e-107	1.3418e-110	4.2349e-114	1.1222e-117	2.4976e-121	4.6724e-125	7.3525e-129	9.7418e-133	1.088e-136	1.0257e-140	8.174e-145	5.5155e-149	3.4745e-153	5.5404e-149	7.5715e-144	8.0869e-139	6.7397e-134	4.3769e-129	2.2125e-124	8.6981e-120	2.6579e-115	6.3107e-111	1.1642e-106	1.6689e-102	1.8599e-98	1.6124e-94	1.0884e-90	5.7266e-87	2.3517e-83	7.5495e-80	1.8979e-76	3.7439e-73	5.8075e-70	7.101e-67	6.8615e-64	5.2539e-61	3.1973e-58	1.5511e-55	6.0188e-53	1.8743e-50	4.7007e-48	9.5304e-46	1.5679e-43	2.1015e-41	2.304e-39	2.0749e-37	1.5415e-35	9.4882e-34	4.8604e-32	2.0815e-30	7.4861e-29
0.0046161	0.0046868	0.0047396	0.004773	0.0047863	0.0047801	0.004756	0.0047157	0.0046612	0.0045945	0.0045171	0.0044302	0.0043346	0.0042315	0.0041221	0.0040082	0.0038928	0.0037794	0.0036727	0.0035781	0.0035008	0.003446	0.0034174	0.0034169	0.0034443	0.0034968	0.0035697	0.0036566	0.0037509	0.0038462	0.0039372	0.0040206	0.0040948	0.0041601	0.004218	0.0042711	0.0043222	0.0043745	0.0044313	0.0044959	0.0045717	0.0046623	0.0047708	0.0049	0.0050519	0.0052269	0.005424	0.00564	0.0058697	0.006106	0.0063403	0.0065631	0.0067648	0.006937	0.007073	0.0071692	0.0072254	0.0072448	0.0072341	0.0072027	0.0071621	0.007124	0.0071	0.0070997	0.0071301	0.0071951	0.007295	0.0074271	0.0075859	0.0077645	0.0079548	0.0081484	0.0083377	0.0085161	0.0086787	0.0088224	0.0089465	0.009053	0.0091461	0.0092324	0.0093195	0.0094157	0.0095282	0.0096625	0.009821	0.010003	0.010205	0.010421	0.010641	0.010858	0.011061	0.011244	0.011401	0.011527	0.011623	0.011689	0.01173	0.011751	0.011758	0.01176	0.011765	0.011778	0.011807	0.011858	0.011934	0.012039	0.012176	0.012344	0.012544	0.012773	0.013029	0.013308	0.013605	0.013916	0.014234	0.014557	0.014878	0.015193	0.015498	0.015787	0.016055	0.016294	0.016497	0.016656	0.01676	0.016803	0.016774	0.016666	0.016473	0.016192	0.015819	0.015356	0.014806	0.014174	0.013468	0.012698	0.011876	0.011014	0.010127	0.0092274	0.0083298	0.0074469	0.0065907	0.0057717	0.0049994	0.004281	0.0036224	0.0030273	0.0024978	0.0020338	0.0016338	0.0012944	0.0010113	0.00077908	0.00059172	0.00044311	0.00032722	0.00023835	0.00017132	0.00012157	8.5191e-05	5.8967e-05	4.0303e-05	2.7175e-05	1.8045e-05	1.1769e-05	7.513e-06	4.6743e-06	2.821e-06	1.643e-06	9.1881e-07	4.9076e-07	2.4908e-07	1.1953e-07	5.3961e-08	2.2807e-08	8.981e-09	3.2792e-09	1.1049e-09	3.4189e-10	9.6685e-11	2.4868e-11	5.7892e-12	1.2138e-12	2.2808e-13	3.8219e-14	5.6828e-15	7.4604e-16	8.604e-17	8.6735e-18	7.6045e-19	5.7698e-20	3.7696e-21	2.1103e-22	1.0073e-23	4.0803e-25	1.3958e-26	4.0138e-28	9.6582e-30	1.9361e-31	3.2194e-33	4.4226e-35	5.0006e-37	4.6395e-39	3.5286e-41	2.2154e-43	1.1946e-45	6.4341e-48	4.6742e-50	4.8129e-52	5.3205e-54	5.3427e-56	4.6536e-58	3.4776e-60	2.2216e-62	1.2105e-64	5.6152e-67	2.2135e-69	7.403e-72	2.0973e-74	5.0259e-77	1.0174e-79	1.7379e-82	2.5021e-85	3.0336e-88	3.0947e-91	2.6548e-94	1.9141e-97	1.1595e-100	5.9001e-104	2.5218e-107	9.0548e-111	2.7319e-114	6.9292e-118	1.4783e-121	2.655e-125	4.0176e-129	5.1282e-133	5.5285e-137	5.0412e-141	3.8944e-145	2.5533e-149	2.1204e-151	3.1558e-146	3.6955e-141	3.3767e-136	2.4041e-131	1.3322e-126	5.7404e-122	1.9223e-117	5.001e-113	1.0106e-108	1.5867e-104	1.936e-100	1.8371e-96	1.3568e-92	7.8077e-89	3.5054e-85	1.2297e-81	3.3768e-78	7.2721e-75	1.2308e-71	1.6412e-68	1.7283e-65	1.4413e-62	9.5468e-60	5.0375e-57	2.1244e-54	7.1846e-52	1.9554e-49	4.2983e-47	7.6607e-45	1.1113e-42	1.3175e-40	1.2818e-38	1.0277e-36	6.8204e-35	3.7629e-33	1.7337e-31	6.7011e-30
0.0040703	0.0041352	0.004185	0.0042182	0.0042346	0.0042349	0.0042204	0.0041928	0.004154	0.0041054	0.0040483	0.0039832	0.0039108	0.0038316	0.0037463	0.0036567	0.0035649	0.0034745	0.0033898	0.003316	0.0032582	0.0032213	0.0032089	0.003223	0.0032632	0.003327	0.0034096	0.0035052	0.0036073	0.0037097	0.0038077	0.0038977	0.0039782	0.0040493	0.0041121	0.004169	0.0042225	0.0042758	0.0043322	0.0043953	0.0044688	0.0045566	0.0046622	0.004789	0.0049391	0.0051134	0.005311	0.0055288	0.0057616	0.0060022	0.0062416	0.00647	0.0066777	0.006856	0.0069984	0.0071015	0.0071653	0.0071936	0.0071935	0.0071747	0.0071488	0.007128	0.0071236	0.0071451	0.0071994	0.0072901	0.0074171	0.0075776	0.0077658	0.0079742	0.0081946	0.0084184	0.0086376	0.0088454	0.0090369	0.0092091	0.0093617	0.0094969	0.0096195	0.0097366	0.0098561	0.0099866	0.010135	0.010308	0.010506	0.01073	0.010974	0.011234	0.0115	0.011764	0.012016	0.012251	0.012462	0.012647	0.012804	0.012936	0.013045	0.013139	0.013223	0.013305	0.013393	0.013495	0.013617	0.013767	0.013948	0.014166	0.014422	0.014717	0.015051	0.015423	0.015828	0.016262	0.01672	0.017197	0.017686	0.018183	0.018681	0.019175	0.019658	0.020124	0.020564	0.020969	0.021329	0.021631	0.021865	0.022016	0.022074	0.022028	0.021868	0.021589	0.021186	0.020659	0.02001	0.019246	0.018376	0.017411	0.016366	0.015258	0.014105	0.012924	0.011735	0.010555	0.0094016	0.008289	0.007231	0.0062387	0.0053209	0.004484	0.0037321	0.0030668	0.002487	0.0019899	0.0015704	0.0012222	0.00093792	0.0007097	0.00052951	0.00038962	0.0002828	0.00020256	0.00014323	0.00010001	6.8947e-05	4.6906e-05	3.145e-05	2.0736e-05	1.3404e-05	8.4616e-06	5.1931e-06	3.0833e-06	1.7619e-06	9.6395e-07	5.023e-07	2.4802e-07	1.1546e-07	5.042e-08	2.0554e-08	7.7836e-09	2.7248e-09	8.7754e-10	2.5873e-10	6.9492e-11	1.6921e-11	3.7167e-12	7.3282e-13	1.2905e-13	2.0198e-14	2.7953e-15	3.4038e-16	3.6285e-17	3.3695e-18	2.712e-19	1.8827e-20	1.1217e-21	5.7078e-23	2.4689e-24	9.0351e-26	2.7846e-27	7.1953e-29	1.5522e-30	2.784e-32	4.137e-34	5.0801e-36	5.1593e-38	4.3912e-40	3.3221e-42	2.6796e-44	2.955e-46	4.2089e-48	6.0784e-50	7.8884e-52	8.8928e-54	8.6304e-56	7.1856e-58	5.1207e-60	3.1171e-62	1.6176e-64	7.1444e-67	2.6807e-69	8.5323e-72	2.3002e-74	5.2454e-77	1.0106e-79	1.6431e-82	2.2524e-85	2.6011e-88	2.5289e-91	2.0687e-94	1.4234e-97	8.2351e-101	4.0062e-104	1.6388e-107	5.6385e-111	1.6323e-114	3.9784e-118	8.1691e-122	1.4145e-125	2.0675e-129	2.5542e-133	2.6707e-137	2.3673e-141	1.782e-145	1.1415e-149	1.2183e-148	1.5593e-143	1.5573e-138	1.212e-133	7.3419e-129	3.4585e-124	1.2661e-119	3.6005e-115	7.953e-111	1.3646e-106	1.8195e-102	1.8862e-98	1.5217e-94	9.5624e-91	4.687e-87	1.7945e-83	5.3758e-80	1.2625e-76	2.3294e-73	3.3843e-70	3.8812e-67	3.5232e-64	2.5386e-61	1.4564e-58	6.6731e-56	2.4504e-53	7.2359e-51	1.7246e-48	3.3299e-46	5.2291e-44	6.7052e-42	7.0495e-40	6.1023e-38	4.3681e-36	2.5969e-34	1.288e-32	5.3536e-31
0.0035767	0.0036361	0.003683	0.0037164	0.003736	0.0037425	0.0037373	0.0037219	0.0036979	0.0036663	0.003628	0.0035833	0.0035323	0.0034751	0.0034122	0.0033445	0.0032742	0.0032043	0.0031389	0.0030829	0.0030412	0.0030184	0.0030183	0.0030426	0.0030911	0.0031617	0.0032499	0.0033504	0.0034571	0.0035643	0.0036673	0.0037628	0.003849	0.0039257	0.0039938	0.004055	0.0041118	0.0041672	0.0042244	0.0042872	0.0043596	0.0044457	0.0045495	0.0046745	0.0048231	0.0049965	0.0051938	0.0054121	0.0056462	0.0058886	0.0061304	0.0063615	0.0065721	0.0067538	0.0069001	0.007008	0.0070779	0.0071141	0.0071239	0.0071176	0.0071069	0.0071039	0.0071199	0.0071643	0.0072435	0.0073607	0.0075158	0.0077052	0.0079231	0.0081616	0.0084122	0.008666	0.0089149	0.009152	0.0093724	0.0095734	0.0097548	0.0099194	0.010073	0.010221	0.010375	0.010541	0.010727	0.010938	0.011177	0.011443	0.011731	0.012036	0.012349	0.012662	0.012968	0.013259	0.013531	0.013782	0.01401	0.014219	0.014411	0.014593	0.01477	0.014951	0.015142	0.015354	0.015592	0.015864	0.016176	0.016532	0.016935	0.017386	0.017886	0.018431	0.019019	0.019644	0.020301	0.020984	0.021686	0.022401	0.023122	0.023841	0.02455	0.02524	0.025899	0.026516	0.027077	0.027566	0.027968	0.028265	0.028442	0.028485	0.028381	0.028121	0.0277	0.027114	0.026366	0.025463	0.024414	0.023234	0.021939	0.020551	0.019092	0.017584	0.016053	0.014521	0.013011	0.011543	0.010137	0.0088076	0.0075679	0.0064277	0.0053941	0.0044708	0.0036582	0.0029542	0.0023539	0.00185	0.0014339	0.001096	0.00082597	0.00061381	0.00044987	0.00032525	0.00023206	0.00016343	0.00011362	7.7956e-05	5.2737e-05	3.5116e-05	2.2955e-05	1.468e-05	9.1468e-06	5.526e-06	3.2208e-06	1.8016e-06	9.6206e-07	4.879e-07	2.3378e-07	1.053e-07	4.4365e-08	1.7396e-08	6.3172e-09	2.1141e-09	6.4884e-10	1.8172e-10	4.6214e-11	1.0619e-11	2.194e-12	4.055e-13	6.6715e-14	9.7217e-15	1.2485e-15	1.4059e-16	1.3814e-17	1.1785e-18	8.6861e-20	5.5043e-21	2.9846e-22	1.3783e-23	5.3956e-25	1.7827e-26	4.9496e-28	1.1503e-29	2.2304e-31	3.6015e-33	4.8607e-35	5.6031e-37	5.9758e-39	7.1718e-41	1.1517e-42	2.1991e-44	4.0996e-46	6.8297e-48	9.9078e-50	1.2419e-51	1.3406e-53	1.2432e-55	9.8828e-58	6.7209e-60	3.9027e-62	1.9315e-64	8.1331e-67	2.9092e-69	8.8266e-72	2.2684e-74	4.9319e-77	9.0613e-80	1.4055e-82	1.8388e-85	2.0278e-88	1.8838e-91	1.4737e-94	9.7055e-98	5.3803e-101	2.5107e-104	9.8641e-108	3.2642e-111	9.1024e-115	2.1405e-118	4.2482e-122	7.1233e-126	1.0104e-129	1.2139e-133	1.2372e-137	1.0716e-141	7.903e-146	5.4087e-150	6.0796e-146	6.616e-141	5.6116e-136	3.7054e-131	1.9029e-126	7.5954e-122	2.3553e-117	5.6733e-113	1.0615e-108	1.5435e-104	1.7448e-100	1.5347e-96	1.0514e-92	5.6174e-89	2.3438e-85	7.6504e-82	1.9571e-78	3.932e-75	6.2183e-72	7.76e-69	7.6617e-66	6.0019e-63	3.7415e-60	1.8619e-57	7.4209e-55	2.3771e-52	6.1418e-50	1.2847e-47	2.184e-45	3.0293e-43	3.4423e-41	3.218e-39	2.4855e-37	1.5929e-35	8.509e-34	3.8058e-32
0.0031356	0.00319	0.0032346	0.0032684	0.0032913	0.003304	0.0033076	0.0033035	0.003293	0.0032769	0.0032558	0.0032295	0.0031979	0.0031605	0.0031175	0.0030695	0.0030181	0.0029661	0.0029172	0.0028758	0.0028468	0.0028345	0.0028426	0.002873	0.0029258	0.0029991	0.0030892	0.0031913	0.0032999	0.0034096	0.0035161	0.003616	0.0037075	0.0037897	0.0038632	0.0039294	0.0039903	0.0040487	0.0041078	0.0041715	0.004244	0.0043295	0.0044323	0.0045561	0.0047035	0.0048757	0.005072	0.0052894	0.0055228	0.0057647	0.006006	0.006237	0.0064478	0.0066302	0.0067782	0.006889	0.0069636	0.0070066	0.0070259	0.0070319	0.0070365	0.0070517	0.0070887	0.0071564	0.0072612	0.0074055	0.0075889	0.0078075	0.008055	0.0083234	0.0086038	0.0088872	0.0091654	0.0094316	0.0096809	0.0099108	0.010122	0.010316	0.010501	0.010682	0.01087	0.011072	0.011297	0.011548	0.011828	0.012137	0.012469	0.01282	0.013182	0.013547	0.013909	0.014261	0.0146	0.014924	0.015234	0.015531	0.015819	0.016103	0.01639	0.016688	0.017003	0.017345	0.017721	0.01814	0.018607	0.019128	0.019706	0.020343	0.021038	0.021791	0.022596	0.023449	0.024345	0.025276	0.026237	0.027217	0.028209	0.029204	0.030189	0.031153	0.032082	0.032959	0.033767	0.034486	0.035095	0.035574	0.035903	0.036063	0.036037	0.035815	0.035386	0.034749	0.033904	0.032857	0.03162	0.030208	0.028642	0.026946	0.025146	0.023271	0.021351	0.019416	0.017494	0.015613	0.013797	0.012067	0.010441	0.0089337	0.0075557	0.0063135	0.0052102	0.0042449	0.0034132	0.0027079	0.0021191	0.0016355	0.0012448	0.00093412	0.00069124	0.00050447	0.00036318	0.000258	0.00018087	0.00012513	8.5368e-05	5.7362e-05	3.788e-05	2.451e-05	1.5479e-05	9.4993e-06	5.6369e-06	3.2177e-06	1.7576e-06	9.1385e-07	4.4991e-07	2.0865e-07	9.0694e-08	3.676e-08	1.3825e-08	4.8003e-09	1.5312e-09	4.4647e-10	1.1841e-10	2.8425e-11	6.1451e-12	1.1905e-12	2.0563e-13	3.1513e-14	4.2633e-15	5.0664e-16	5.2627e-17	4.7548e-18	3.7185e-19	2.5051e-20	1.447e-21	7.1334e-23	2.988e-24	1.059e-25	3.1638e-27	7.9439e-29	1.6758e-30	2.9919e-32	4.6683e-34	7.0296e-36	1.2332e-37	2.7715e-39	6.9295e-41	1.6507e-42	3.5062e-44	6.5055e-46	1.0471e-47	1.4571e-49	1.7486e-51	1.8057e-53	1.601e-55	1.2163e-57	7.9029e-60	4.3831e-62	2.0715e-64	8.329e-67	2.8448e-69	8.2421e-72	2.0231e-74	4.2023e-77	7.3791e-80	1.0944e-82	1.37e-85	1.4465e-88	1.2878e-91	9.6629e-95	6.1104e-98	3.2564e-101	1.4627e-104	5.5401e-108	1.77e-111	4.7738e-115	1.0877e-118	2.0958e-122	3.4189e-126	4.7283e-130	5.552e-134	5.5446e-138	4.7179e-142	3.4276e-146	2.2138e-148	2.5913e-143	2.3878e-138	1.7135e-133	9.5658e-129	4.1517e-124	1.4002e-119	3.6689e-115	7.4689e-111	1.1816e-106	1.4536e-102	1.3914e-98	1.0373e-94	6.0308e-91	2.7381e-87	9.7237e-84	2.706e-80	5.9129e-77	1.0168e-73	1.3794e-70	1.4801e-67	1.2596e-64	8.5268e-62	4.606e-59	1.9918e-56	6.9187e-54	1.9374e-51	4.3894e-49	8.0771e-47	1.2119e-44	1.4886e-42	1.5031e-40	1.2529e-38	8.6597e-37	4.9851e-35	2.402e-33
0.0027467	0.0027969	0.0028397	0.0028742	0.0029003	0.0029187	0.0029303	0.0029362	0.0029377	0.0029353	0.0029292	0.0029192	0.0029045	0.0028845	0.002859	0.0028281	0.002793	0.0027562	0.0027209	0.0026912	0.0026716	0.0026664	0.0026792	0.002712	0.0027654	0.0028381	0.0029269	0.0030278	0.0031359	0.0032464	0.003355	0.0034585	0.0035545	0.0036421	0.0037211	0.0037926	0.0038583	0.0039205	0.0039825	0.0040481	0.0041216	0.0042075	0.0043101	0.0044332	0.0045794	0.0047501	0.0049444	0.0051596	0.0053903	0.0056293	0.0058678	0.0060959	0.0063044	0.0064852	0.0066329	0.0067451	0.0068232	0.0068722	0.0069005	0.0069185	0.0069383	0.0069718	0.0070299	0.0071213	0.0072517	0.0074232	0.0076348	0.0078823	0.0081589	0.0084566	0.0087661	0.0090785	0.0093855	0.0096805	0.0099585	0.010218	0.010458	0.010684	0.0109	0.011115	0.011338	0.011577	0.01184	0.012131	0.012453	0.012805	0.013183	0.013581	0.013993	0.014413	0.014834	0.015251	0.015663	0.016068	0.016468	0.016863	0.01726	0.017661	0.018074	0.018505	0.018962	0.019455	0.019991	0.020578	0.021225	0.021936	0.022716	0.023567	0.024489	0.02548	0.026538	0.027658	0.028833	0.030057	0.031321	0.032616	0.033929	0.03525	0.036563	0.037852	0.039099	0.040283	0.041382	0.042372	0.043227	0.043921	0.04443	0.044731	0.044804	0.044634	0.044211	0.043529	0.042589	0.041398	0.039967	0.038314	0.036462	0.034437	0.032271	0.029997	0.027652	0.02527	0.022889	0.020542	0.01826	0.01607	0.013997	0.012061	0.010276	0.008653	0.0071988	0.0059147	0.0047975	0.0038406	0.0030335	0.0023634	0.001816	0.001376	0.001028	0.00075732	0.00055021	0.00039431	0.00027878	0.00019446	0.00013377	9.0662e-05	6.0434e-05	3.9519e-05	2.5264e-05	1.5724e-05	9.4838e-06	5.5148e-06	3.0756e-06	1.6364e-06	8.2626e-07	3.9384e-07	1.7631e-07	7.3743e-08	2.8674e-08	1.0313e-08	3.4136e-09	1.0347e-09	2.8577e-10	7.1561e-11	1.6166e-11	3.2783e-12	5.9379e-13	9.559e-14	1.3609e-14	1.7051e-15	1.8708e-16	1.7888e-17	1.4836e-18	1.0622e-19	6.5355e-21	3.4404e-22	1.5432e-23	5.8773e-25	1.8964e-26	5.1919e-28	1.221e-29	2.5764e-31	5.4556e-33	1.3632e-34	4.1424e-36	1.3318e-37	4.0169e-39	1.0804e-40	2.5471e-42	5.2312e-44	9.3273e-46	1.44e-47	1.9206e-49	2.2078e-51	2.1828e-53	1.8523e-55	1.3464e-57	8.3679e-60	4.4387e-62	2.0063e-64	7.715e-67	2.5205e-69	6.9865e-72	1.6412e-74	3.264e-77	5.4907e-80	7.8062e-83	9.3742e-86	9.5038e-89	8.1318e-92	5.8711e-95	3.5767e-98	1.8389e-101	7.9805e-105	2.925e-108	9.0596e-112	2.3731e-115	5.2622e-119	9.8888e-123	1.5769e-126	2.137e-130	2.4651e-134	2.425e-138	2.0383e-142	1.4672e-146	9.3647e-146	9.3444e-141	7.2646e-136	4.3956e-131	2.0685e-126	7.567e-122	2.1513e-117	4.7531e-113	8.1633e-109	1.0904e-104	1.1335e-100	9.1784e-97	5.7964e-93	2.8588e-89	1.1029e-85	3.3339e-82	7.9132e-79	1.4779e-75	2.1772e-72	2.5363e-69	2.3428e-66	1.721e-63	1.0084e-60	4.7286e-58	1.7804e-55	5.4011e-53	1.3251e-50	2.6389e-48	4.2825e-46	5.686e-44	6.2019e-42	5.5813e-40	4.1633e-38	2.5884e-36	1.3517e-34
0.0024089	0.0024556	0.0024969	0.0025321	0.0025611	0.0025843	0.0026026	0.0026171	0.0026287	0.0026378	0.0026445	0.0026481	0.0026479	0.0026428	0.0026321	0.0026157	0.0025945	0.0025702	0.0025459	0.0025251	0.0025122	0.0025111	0.0025256	0.0025579	0.002609	0.0026783	0.0027634	0.0028609	0.0029666	0.0030763	0.0031857	0.0032917	0.0033917	0.0034842	0.0035688	0.0036457	0.0037164	0.003783	0.0038485	0.0039168	0.0039922	0.0040791	0.004182	0.0043046	0.0044496	0.0046181	0.0048095	0.005021	0.0052473	0.0054814	0.0057146	0.0059377	0.0061417	0.006319	0.0064647	0.006577	0.0066577	0.0067121	0.0067489	0.0067787	0.0068135	0.0068651	0.0069442	0.007059	0.0072147	0.0074129	0.0076522	0.0079277	0.0082327	0.0085586	0.0088963	0.0092369	0.0095721	0.0098954	0.010202	0.010491	0.010761	0.011018	0.011267	0.011516	0.011775	0.012052	0.012353	0.012685	0.013048	0.013443	0.013867	0.014313	0.014777	0.015253	0.015736	0.016224	0.016714	0.017207	0.017705	0.018209	0.018724	0.019255	0.019808	0.020388	0.021004	0.021666	0.02238	0.023157	0.024005	0.02493	0.025937	0.027029	0.028207	0.02947	0.030815	0.032238	0.033733	0.035292	0.036905	0.03856	0.040244	0.041939	0.043628	0.045289	0.046899	0.048432	0.049861	0.051157	0.052288	0.053224	0.053936	0.054397	0.054584	0.054478	0.054068	0.053348	0.052317	0.050983	0.049358	0.047461	0.045316	0.042954	0.040408	0.037716	0.034921	0.032064	0.029187	0.026332	0.023538	0.020839	0.018265	0.015842	0.013592	0.01153	0.009667	0.0080066	0.0065488	0.005288	0.0042141	0.0033134	0.0025698	0.0019655	0.0014824	0.0011024	0.0008083	0.00058447	0.00041682	0.00029319	0.00020335	0.00013898	9.3471e-05	6.1723e-05	3.99e-05	2.5153e-05	1.5395e-05	9.1038e-06	5.1748e-06	2.8124e-06	1.4538e-06	7.1092e-07	3.2718e-07	1.4098e-07	5.658e-08	2.1044e-08	7.2167e-09	2.2705e-09	6.5206e-10	1.7009e-10	4.0098e-11	8.5007e-12	1.6126e-12	2.724e-13	4.0771e-14	5.3807e-15	6.2314e-16	6.3025e-17	5.5413e-18	4.2161e-19	2.7641e-20	1.5553e-21	7.4879e-23	3.0809e-24	1.0877e-25	3.3554e-27	9.5483e-29	2.8135e-30	9.7217e-32	3.8816e-33	1.5813e-34	5.9871e-36	2.0242e-37	6.0232e-39	1.568e-40	3.5589e-42	7.0241e-44	1.2025e-45	1.7815e-47	2.2788e-49	2.5114e-51	2.3796e-53	1.9347e-55	1.3472e-57	8.0194e-60	4.0744e-62	1.764e-64	6.4988e-67	2.0346e-69	5.4066e-72	1.2181e-74	2.3249e-77	3.7558e-80	5.1321e-83	5.9289e-86	5.7886e-89	4.7753e-92	3.3284e-95	1.9603e-98	9.7584e-102	4.1075e-105	1.4627e-108	4.4105e-112	1.127e-115	2.4433e-119	4.4994e-123	7.0484e-127	9.4079e-131	1.0718e-134	1.0443e-138	8.72e-143	6.5674e-147	3.3659e-143	2.8257e-138	1.8474e-133	9.3983e-129	3.7185e-124	1.1439e-119	2.736e-115	5.0888e-111	7.3634e-107	8.2946e-103	7.2804e-99	4.9848e-95	2.6659e-91	1.1153e-87	3.6569e-84	9.4145e-81	1.9072e-77	3.0473e-74	3.8499e-71	3.8562e-68	3.0711e-65	1.9506e-62	9.9113e-60	4.0424e-57	1.328e-54	3.5266e-52	7.5986e-50	1.3335e-47	1.9138e-45	2.2559e-43	2.1955e-41	1.7774e-39	1.2134e-37	7.184e-36
0.0021194	0.0021631	0.0022031	0.0022388	0.0022699	0.0022968	0.0023204	0.0023416	0.0023612	0.0023795	0.0023964	0.0024112	0.0024228	0.00243	0.0024317	0.0024274	0.0024176	0.0024035	0.0023878	0.0023737	0.002365	0.0023659	0.0023797	0.0024094	0.0024561	0.0025201	0.0025996	0.0026921	0.002794	0.0029014	0.0030106	0.0031181	0.0032212	0.003318	0.0034076	0.0034898	0.0035655	0.0036367	0.0037061	0.0037775	0.0038552	0.0039435	0.0040469	0.004169	0.0043124	0.0044782	0.0046657	0.0048721	0.0050923	0.0053197	0.0055458	0.005762	0.0059597	0.0061321	0.0062747	0.0063861	0.0064687	0.0065281	0.0065729	0.0066142	0.0066636	0.006733	0.0068326	0.0069702	0.0071504	0.0073744	0.0076402	0.0079427	0.0082747	0.0086276	0.0089925	0.0093603	0.009723	0.010074	0.01041	0.010727	0.011029	0.011317	0.011599	0.011883	0.012178	0.012491	0.012832	0.013204	0.013609	0.014048	0.014517	0.015012	0.01553	0.016064	0.016613	0.017174	0.017748	0.018335	0.018938	0.019559	0.020203	0.020874	0.021578	0.022321	0.02311	0.023955	0.024865	0.025849	0.026917	0.028077	0.029334	0.030692	0.032153	0.033717	0.035382	0.037145	0.038997	0.040931	0.042935	0.044994	0.04709	0.049203	0.051309	0.053381	0.055391	0.057307	0.059095	0.060722	0.062151	0.063347	0.064276	0.064907	0.065215	0.06518	0.064789	0.064034	0.062917	0.061444	0.05963	0.057493	0.055059	0.05236	0.049433	0.04632	0.043065	0.039717	0.036326	0.032937	0.029599	0.026353	0.023236	0.020282	0.017517	0.014964	0.012638	0.010548	0.0086969	0.0070809	0.0056913	0.0045144	0.003533	0.0027272	0.0020761	0.0015583	0.0011532	0.00084149	0.00060543	0.00042952	0.00030042	0.00020705	0.00014046	9.3618e-05	6.1143e-05	3.8998e-05	2.419e-05	1.4526e-05	8.4014e-06	4.6561e-06	2.4595e-06	1.2318e-06	5.8178e-07	2.5779e-07	1.0661e-07	4.0938e-08	1.4522e-08	4.7351e-09	1.4119e-09	3.8311e-10	9.4124e-11	2.0835e-11	4.1349e-12	7.3212e-13	1.1509e-13	1.5987e-14	1.9531e-15	2.0887e-16	1.9468e-17	1.5749e-18	1.1017e-19	6.6477e-21	3.4608e-22	1.5656e-23	6.3063e-25	2.4068e-26	9.7058e-28	4.5017e-29	2.3074e-30	1.1762e-31	5.5433e-33	2.3386e-34	8.7198e-36	2.8573e-37	8.1994e-39	2.0549e-40	4.4862e-42	8.5108e-44	1.3998e-45	1.9914e-47	2.4452e-49	2.586e-51	2.3507e-53	1.8333e-55	1.2244e-57	6.9915e-60	3.4076e-62	1.4156e-64	5.0056e-67	1.5048e-69	3.8415e-72	8.3206e-75	1.5277e-77	2.3763e-80	3.1296e-83	3.4884e-86	3.2902e-89	2.6256e-92	1.7729e-95	1.0131e-98	4.902e-102	2.0092e-105	6.9814e-109	2.0583e-112	5.1542e-116	1.0976e-119	1.9905e-123	3.0789e-127	4.069e-131	4.6034e-135	4.4675e-139	3.7276e-143	1.1438e-145	1.0092e-140	7.1057e-136	3.8958e-131	1.6622e-126	5.5176e-122	1.4248e-117	2.8624e-113	4.4761e-109	5.4514e-105	5.1752e-101	3.8337e-97	2.219e-93	1.005e-89	3.568e-86	9.9477e-83	2.1827e-79	3.7775e-76	5.1695e-73	5.6086e-70	4.8378e-67	3.3275e-64	1.8307e-61	8.083e-59	2.8737e-56	8.2564e-54	1.9241e-51	3.6521e-49	5.6733e-47	7.2664e-45	7.7837e-43	7.1971e-41	6.1236e-39	5.2332e-37
0.001874	0.001915	0.0019536	0.0019892	0.0020214	0.0020508	0.002078	0.0021039	0.0021293	0.0021545	0.0021792	0.0022027	0.0022237	0.0022407	0.0022524	0.002258	0.0022573	0.0022515	0.0022425	0.0022331	0.0022271	0.0022283	0.0022402	0.0022658	0.002307	0.0023645	0.0024374	0.0025237	0.0026206	0.0027247	0.0028324	0.0029403	0.0030455	0.0031456	0.0032394	0.0033262	0.0034066	0.0034822	0.0035555	0.0036301	0.0037101	0.0037999	0.0039037	0.004025	0.0041663	0.0043287	0.0045113	0.0047114	0.0049242	0.0051433	0.0053609	0.0055687	0.005759	0.0059255	0.0060641	0.0061742	0.0062583	0.0063223	0.006375	0.0064273	0.0064911	0.0065776	0.0066969	0.0068562	0.0070598	0.0073082	0.007599	0.0079269	0.0082844	0.008663	0.0090537	0.0094477	0.0098373	0.010216	0.01058	0.010927	0.011259	0.011579	0.011895	0.012213	0.012544	0.012895	0.013274	0.013686	0.014133	0.014615	0.015131	0.015676	0.016248	0.016843	0.01746	0.018099	0.01876	0.019446	0.02016	0.020906	0.021686	0.022505	0.023369	0.024284	0.025257	0.026298	0.027416	0.028623	0.029928	0.03134	0.032867	0.034513	0.036282	0.038175	0.04019	0.042322	0.044566	0.04691	0.04934	0.051838	0.054383	0.056946	0.0595	0.062012	0.064446	0.066766	0.068931	0.070903	0.072639	0.0741	0.075249	0.076052	0.076481	0.076517	0.076144	0.075358	0.074158	0.072553	0.070558	0.068192	0.065482	0.06246	0.059165	0.055641	0.051935	0.0481	0.044191	0.040261	0.036365	0.03255	0.028864	0.025346	0.022031	0.018946	0.016113	0.013547	0.011255	0.0092364	0.0074849	0.0059876	0.0047269	0.0036815	0.0028281	0.0021424	0.0016002	0.0011783	0.00085541	0.00061221	0.0004319	0.00030021	0.00020542	0.00013815	9.1116e-05	5.8751e-05	3.6895e-05	2.2467e-05	1.3203e-05	7.4498e-06	4.0149e-06	2.0557e-06	9.9473e-07	4.5251e-07	1.9251e-07	7.6196e-08	2.7916e-08	9.4186e-09	2.9118e-09	8.2073e-10	2.0987e-10	4.8448e-11	1.0048e-11	1.863e-12	3.0737e-13	4.4913e-14	5.7861e-15	6.5436e-16	6.4706e-17	5.5765e-18	4.1815e-19	2.7334e-20	1.5742e-21	8.2324e-23	4.1746e-24	2.256e-25	1.3664e-26	8.8193e-28	5.5625e-29	3.2361e-30	1.6906e-31	7.8405e-33	3.2104e-34	1.1565e-35	3.6545e-37	1.0104e-38	2.4381e-40	5.122e-42	9.3459e-44	1.4778e-45	2.0205e-47	2.3837e-49	2.4216e-51	2.1144e-53	1.5838e-55	1.016e-57	5.5734e-60	2.6103e-62	1.0424e-64	3.5447e-67	1.0254e-69	2.5207e-72	5.2613e-75	9.3178e-78	1.3994e-80	1.7815e-83	1.922e-86	1.7569e-89	1.3609e-92	8.9348e-96	4.9732e-99	2.3482e-102	9.4114e-106	3.2047e-109	9.28e-113	2.2881e-116	4.8098e-120	8.6337e-124	1.3256e-127	1.744e-131	1.9704e-135	1.9157e-139	1.6068e-143	3.312e-143	2.503e-138	1.4742e-133	6.7622e-129	2.4149e-124	6.7134e-120	1.453e-115	2.4492e-111	3.2171e-107	3.2957e-103	2.6358e-99	1.6478e-95	8.0636e-92	3.0941e-88	9.3266e-85	2.213e-81	4.1424e-78	6.1322e-75	7.1976e-72	6.7168e-69	4.998e-66	2.9746e-63	1.4206e-60	5.4626e-58	1.6977e-55	4.2842e-53	8.8444e-51	1.5172e-48	2.2451e-46	3.0993e-44	4.4191e-42	6.674e-40	9.7763e-38
0.0016671	0.0017055	0.0017424	0.001777	0.0018094	0.0018397	0.0018688	0.0018975	0.0019267	0.0019565	0.0019868	0.0020166	0.0020447	0.0020694	0.002089	0.0021024	0.0021092	0.0021098	0.002106	0.0021003	0.0020959	0.0020965	0.0021059	0.0021271	0.0021624	0.002213	0.0022788	0.0023584	0.0024496	0.0025494	0.0026544	0.0027614	0.0028673	0.0029695	0.0030664	0.0031569	0.0032412	0.0033205	0.0033973	0.0034748	0.0035569	0.0036478	0.0037515	0.0038715	0.0040101	0.0041682	0.004345	0.0045378	0.0047422	0.004952	0.00516	0.0053586	0.0055407	0.0057006	0.005835	0.0059435	0.006029	0.0060975	0.006158	0.0062212	0.0062987	0.0064016	0.0065395	0.0067193	0.0069446	0.0072157	0.0075297	0.007881	0.0082622	0.0086649	0.00908	0.0094992	0.0099147	0.010321	0.010712	0.011089	0.011452	0.011804	0.012152	0.012505	0.012872	0.01326	0.013677	0.014129	0.014617	0.015143	0.015706	0.016302	0.016929	0.017587	0.018274	0.018993	0.019745	0.020534	0.021364	0.022238	0.02316	0.024133	0.025164	0.026257	0.027422	0.028667	0.030004	0.031444	0.032999	0.034679	0.036493	0.038447	0.040545	0.042789	0.045178	0.047707	0.050369	0.05315	0.056034	0.058997	0.062013	0.065049	0.068069	0.071035	0.073904	0.076634	0.07918	0.081494	0.083533	0.085253	0.086613	0.087579	0.088122	0.088221	0.087864	0.087044	0.085766	0.084038	0.081875	0.079298	0.076333	0.073013	0.069376	0.065466	0.061334	0.057033	0.052623	0.048163	0.043713	0.039329	0.035065	0.030968	0.02708	0.023436	0.020066	0.016988	0.014216	0.011755	0.0096009	0.0077429	0.0061639	0.0048423	0.0037528	0.0028685	0.002162	0.0016066	0.001177	0.00084989	0.00060486	0.0004241	0.00029273	0.00019865	0.00013227	8.6172e-05	5.4743e-05	3.3772e-05	2.014e-05	1.1554e-05	6.3429e-06	3.3151e-06	1.6408e-06	7.6502e-07	3.3426e-07	1.3616e-07	5.1438e-08	1.7932e-08	5.7395e-09	1.6783e-09	4.4613e-10	1.0729e-10	2.3229e-11	4.5068e-12	7.7993e-13	1.1986e-13	1.6289e-14	1.9504e-15	2.052e-16	1.8958e-17	1.5441e-18	1.1243e-19	7.5755e-21	5.0368e-22	3.5642e-23	2.7508e-24	2.1997e-25	1.6989e-26	1.2098e-27	7.7653e-29	4.4453e-30	2.2573e-31	1.0132e-32	4.0075e-34	1.3932e-35	4.2456e-37	1.1313e-38	2.6297e-40	5.3191e-42	9.3413e-44	1.4212e-45	1.8691e-47	2.1208e-49	2.072e-51	1.7398e-53	1.2534e-55	7.7355e-58	4.0833e-60	1.841e-62	7.0809e-65	2.3207e-67	6.4744e-70	1.5363e-72	3.0982e-75	5.307e-78	7.7183e-81	9.5276e-84	9.9811e-87	8.8738e-90	6.6965e-93	4.2908e-96	2.3355e-99	1.0806e-102	4.2535e-106	1.4258e-109	4.0744e-113	9.9396e-117	2.073e-120	3.7025e-124	5.6731e-128	7.4724e-132	8.4791e-136	8.3083e-140	7.1475e-144	8.081e-141	5.0958e-136	2.5049e-131	9.5944e-127	2.8631e-122	6.6568e-118	1.2063e-113	1.7046e-109	1.8798e-105	1.6194e-101	1.091e-97	5.7571e-94	2.3831e-90	7.7521e-87	1.9857e-83	4.014e-80	6.4185e-77	8.1391e-74	8.2069e-71	6.5993e-68	4.2449e-65	2.1918e-62	9.1254e-60	3.0878e-57	8.6492e-55	2.102e-52	4.8922e-50	1.219e-47	3.2278e-45	8.0549e-43	1.7145e-40	2.9763e-38
0.0014927	0.0015282	0.0015627	0.0015956	0.0016268	0.0016568	0.0016861	0.0017159	0.0017469	0.0017794	0.0018132	0.0018475	0.0018807	0.0019111	0.0019368	0.0019564	0.0019691	0.0019751	0.0019755	0.0019726	0.0019694	0.0019695	0.0019764	0.0019934	0.0020232	0.0020673	0.002126	0.0021988	0.0022838	0.0023784	0.0024797	0.0025844	0.0026895	0.0027923	0.0028907	0.0029835	0.0030705	0.0031528	0.0032322	0.0033118	0.0033954	0.0034868	0.0035899	0.0037079	0.003843	0.003996	0.0041662	0.004351	0.0045461	0.0047459	0.0049438	0.0051327	0.0053063	0.0054596	0.0055898	0.0056968	0.0057839	0.0058571	0.0059253	0.0059992	0.0060899	0.0062083	0.0063636	0.0065622	0.0068074	0.0070991	0.0074341	0.0078067	0.0082096	0.0086345	0.0090726	0.0095156	0.009956	0.010388	0.010808	0.011213	0.011606	0.01199	0.012371	0.012758	0.01316	0.013585	0.01404	0.014531	0.015061	0.015631	0.016239	0.016886	0.01757	0.018291	0.019051	0.019852	0.020698	0.021593	0.022541	0.023546	0.024612	0.025742	0.026942	0.028218	0.029578	0.031034	0.032596	0.034278	0.036093	0.038052	0.040166	0.042443	0.044887	0.0475	0.050282	0.053228	0.056326	0.059562	0.062915	0.066357	0.069855	0.07337	0.076861	0.08028	0.08358	0.086712	0.089624	0.092267	0.094591	0.09655	0.098103	0.099214	0.099854	0.1	0.099654	0.0988	0.097447	0.095605	0.09329	0.090525	0.087334	0.083749	0.079807	0.075551	0.07103	0.066302	0.061426	0.056466	0.051486	0.04655	0.041718	0.037046	0.032581	0.028369	0.024443	0.020831	0.017554	0.01462	0.01203	0.0097771	0.0078458	0.0062147	0.0048575	0.0037454	0.0028482	0.0021356	0.0015786	0.0011502	0.00082594	0.00058426	0.00040687	0.00027861	0.00018726	0.00012323	7.9155e-05	4.9434e-05	2.9887e-05	1.7411e-05	9.7242e-06	5.1804e-06	2.6187e-06	1.2495e-06	5.5987e-07	2.3434e-07	9.1158e-08	3.2789e-08	1.0851e-08	3.2877e-09	9.075e-10	2.2713e-10	5.1302e-11	1.041e-11	1.8897e-12	3.0562e-13	4.3895e-14	5.5871e-15	6.3056e-16	6.348e-17	5.7981e-18	4.9827e-19	4.2722e-20	3.8673e-21	3.7233e-22	3.6371e-23	3.4059e-24	2.944e-25	2.3029e-26	1.6144e-27	1.0088e-28	5.5985e-30	2.7508e-31	1.1934e-32	4.5593e-34	1.5299e-35	4.4977e-37	1.1556e-38	2.5889e-40	5.0454e-42	8.5344e-44	1.2504e-45	1.5834e-47	1.7299e-49	1.6273e-51	1.3159e-53	9.1324e-56	5.4308e-58	2.7636e-60	1.2018e-62	4.4616e-65	1.4124e-67	3.8097e-70	8.7483e-73	1.7093e-75	2.8402e-78	4.0124e-81	4.8184e-84	4.9184e-87	4.2682e-90	3.1498e-93	1.9776e-96	1.057e-99	4.8133e-103	1.8691e-106	6.1964e-110	1.756e-113	4.2598e-117	8.8606e-121	1.5831e-124	2.4343e-128	3.2284e-132	3.7011e-136	3.6771e-140	2.7106e-143	1.6102e-138	8.4537e-134	3.4618e-129	1.1055e-124	2.7532e-120	5.3485e-116	8.1091e-112	9.6021e-108	8.8882e-104	6.439e-100	3.6557e-96	1.629e-92	5.7078e-89	1.5755e-85	3.4334e-82	5.9207e-79	8.0994e-76	8.8136e-73	7.6534e-70	5.3275e-67	2.9996e-64	1.3987e-61	5.7549e-59	2.3699e-56	1.0844e-53	5.1734e-51	2.2291e-48	7.9462e-46	2.2681e-43	5.1393e-41	9.2465e-39
0.0013443	0.0013766	0.001408	0.0014383	0.0014673	0.0014956	0.0015239	0.0015532	0.0015844	0.001618	0.0016537	0.0016906	0.0017273	0.0017618	0.0017921	0.0018166	0.0018341	0.0018445	0.0018486	0.0018484	0.0018465	0.0018464	0.0018515	0.0018653	0.0018904	0.0019287	0.001981	0.0020471	0.0021257	0.0022145	0.002311	0.0024121	0.0025148	0.0026164	0.0027147	0.0028082	0.0028966	0.0029804	0.0030614	0.0031422	0.0032264	0.0033174	0.0034191	0.0035343	0.0036651	0.0038123	0.0039752	0.0041513	0.0043368	0.0045263	0.0047138	0.0048931	0.0050583	0.0052052	0.0053315	0.0054375	0.0055265	0.0056048	0.0056809	0.0057652	0.0058686	0.0060016	0.0061729	0.0063885	0.0066514	0.0069613	0.0073148	0.0077064	0.0081287	0.0085737	0.0090329	0.0094981	0.0099622	0.010419	0.010865	0.011299	0.011721	0.012136	0.01255	0.01297	0.013407	0.013868	0.014361	0.014891	0.015462	0.016074	0.01673	0.017428	0.018169	0.018954	0.019787	0.020671	0.021612	0.022613	0.023681	0.024818	0.026028	0.027315	0.028685	0.030144	0.031701	0.033369	0.03516	0.037088	0.03917	0.041416	0.04384	0.04645	0.049251	0.052246	0.055433	0.058805	0.062349	0.066048	0.069874	0.073796	0.077772	0.081759	0.085708	0.089564	0.093275	0.096785	0.10004	0.10298	0.10556	0.10773	0.10944	0.11067	0.11139	0.11158	0.11122	0.11033	0.1089	0.10696	0.10451	0.10158	0.098201	0.094391	0.090188	0.085635	0.080778	0.075674	0.070382	0.064968	0.059501	0.05405	0.048679	0.043452	0.038426	0.03365	0.029168	0.025016	0.021219	0.017793	0.014746	0.012073	0.0097623	0.0077939	0.0061416	0.0047754	0.0036628	0.0027706	0.0020663	0.0015191	0.0011006	0.00078558	0.00055201	0.00038146	0.00025881	0.00017202	0.00011168	7.0569e-05	4.3223e-05	2.5546e-05	1.45e-05	7.864e-06	4.0547e-06	1.9773e-06	9.0724e-07	3.8966e-07	1.5587e-07	5.7775e-08	1.9746e-08	6.1922e-09	1.7733e-09	4.6162e-10	1.0874e-10	2.3086e-11	4.4004e-12	7.5093e-13	1.1458e-13	1.5659e-14	1.9319e-15	2.1927e-16	2.3732e-17	2.5755e-18	2.917e-19	3.4393e-20	4.0524e-21	4.5575e-22	4.7409e-23	4.4829e-24	3.8176e-25	2.9122e-26	1.9824e-27	1.2006e-28	6.4498e-30	3.0655e-31	1.2856e-32	4.7447e-34	1.5373e-35	4.3617e-37	1.0812e-38	2.336e-40	4.3893e-42	7.1575e-44	1.0108e-45	1.2339e-47	1.2995e-49	1.1787e-51	9.1932e-54	6.1557e-56	3.5337e-58	1.7369e-60	7.3009e-63	2.6219e-65	8.0368e-68	2.1011e-70	4.6822e-73	8.8891e-76	1.4372e-78	1.9787e-81	2.3195e-84	2.3154e-87	1.9686e-90	1.4263e-93	8.8112e-97	4.6445e-100	2.0909e-103	8.0474e-107	2.6514e-110	7.4883e-114	1.8158e-117	3.7871e-121	6.8063e-125	1.0563e-128	1.4188e-132	1.6533e-136	1.6757e-140	4.656e-141	2.601e-136	1.135e-131	3.8664e-127	1.0282e-122	2.1352e-118	3.4636e-114	4.3919e-110	4.3573e-106	3.3859e-102	2.0635e-98	9.8774e-95	3.72e-91	1.1044e-87	2.5898e-84	4.809e-81	7.0915e-78	8.3451e-75	7.9278e-72	6.2891e-69	4.5648e-66	3.5385e-63	3.1083e-60	2.7069e-57	2.025e-54	1.2189e-51	5.7854e-49	2.1571e-46	6.3288e-44	1.4662e-41	2.6936e-39
0.0012165	0.001245	0.0012728	0.0012995	0.0013254	0.001351	0.0013771	0.0014048	0.001435	0.0014683	0.0015045	0.0015427	0.0015815	0.0016188	0.0016526	0.0016809	0.0017023	0.0017166	0.0017241	0.0017266	0.0017265	0.0017269	0.0017313	0.001743	0.0017646	0.0017983	0.0018451	0.001905	0.0019772	0.0020598	0.0021506	0.0022468	0.0023455	0.0024442	0.0025406	0.0026331	0.0027211	0.002805	0.0028863	0.0029672	0.0030508	0.0031406	0.0032399	0.0033514	0.0034772	0.003618	0.003773	0.0039401	0.0041157	0.0042949	0.0044723	0.0046422	0.0047995	0.0049406	0.0050636	0.0051693	0.0052609	0.0053447	0.0054289	0.0055235	0.005639	0.0057855	0.0059712	0.0062019	0.0064802	0.0068057	0.0071751	0.0075829	0.0080221	0.0084847	0.0089627	0.0094482	0.0099341	0.010415	0.010886	0.011346	0.011797	0.012241	0.012686	0.01314	0.013611	0.014107	0.014637	0.015205	0.015817	0.016472	0.017174	0.017923	0.01872	0.01957	0.020476	0.021443	0.022478	0.023586	0.024771	0.026038	0.027391	0.028833	0.03037	0.03201	0.033764	0.035643	0.037663	0.039841	0.042191	0.044729	0.047468	0.050415	0.053579	0.05696	0.060555	0.064355	0.068345	0.072502	0.076794	0.081182	0.08562	0.090057	0.094437	0.098701	0.10279	0.10664	0.11019	0.1134	0.11619	0.11853	0.12038	0.1217	0.12246	0.12266	0.12229	0.12136	0.11986	0.11783	0.11527	0.11221	0.10867	0.10467	0.10026	0.095466	0.090332	0.084913	0.079267	0.07346	0.067563	0.061647	0.055784	0.050041	0.044483	0.039168	0.034146	0.029461	0.025145	0.021223	0.017707	0.014599	0.01189	0.0095644	0.0075955	0.0059534	0.0046042	0.0035124	0.0026424	0.0019598	0.0014326	0.0010317	0.00073158	0.00051022	0.00034947	0.00023459	0.00015391	9.8364e-05	6.1003e-05	3.6554e-05	2.1067e-05	1.162e-05	6.1045e-06	3.0388e-06	1.4261e-06	6.2779e-07	2.5793e-07	9.8413e-08	3.4703e-08	1.1256e-08	3.3428e-09	9.0502e-10	2.2249e-10	4.9496e-11	9.9405e-12	1.8013e-12	2.9538e-13	4.4237e-14	6.1707e-15	8.288e-16	1.1166e-16	1.5504e-17	2.2029e-18	3.0946e-19	4.1409e-20	5.1399e-21	5.8261e-22	5.9775e-23	5.5211e-24	4.5732e-25	3.3862e-26	2.2349e-27	1.3111e-28	6.818e-30	3.1348e-31	1.2711e-32	4.5334e-34	1.4188e-35	3.8871e-37	9.301e-39	1.9394e-40	3.5166e-42	5.5334e-44	7.5409e-46	8.8839e-48	9.0319e-50	7.9109e-52	5.9605e-54	3.8577e-56	2.1418e-58	1.019e-60	4.1494e-63	1.445e-65	4.2997e-68	1.0926e-70	2.3695e-73	4.3844e-76	6.9203e-79	9.3167e-82	1.0699e-84	1.0483e-87	8.7678e-91	6.2626e-94	3.8229e-97	1.9962e-100	8.9253e-104	3.4212e-107	1.1258e-110	3.1854e-114	7.7623e-118	1.6322e-121	2.9675e-125	4.6752e-129	6.3978e-133	7.6243e-137	7.9461e-141	7.3015e-139	3.3834e-134	1.2254e-129	3.4689e-125	7.6762e-121	1.3284e-116	1.7988e-112	1.9076e-108	1.5859e-104	1.035e-100	5.3096e-97	2.1448e-93	6.8361e-90	1.7241e-86	3.4617e-83	5.6297e-80	7.8324e-77	1.068e-73	1.6733e-70	2.8871e-67	4.5738e-64	5.937e-61	6.0669e-58	4.8316e-55	2.9973e-52	1.452e-49	5.5127e-47	1.6468e-44	3.8875e-42	7.2838e-40
0.0011047	0.001129	0.0011525	0.0011751	0.0011972	0.0012192	0.0012423	0.0012676	0.0012959	0.0013279	0.0013636	0.001402	0.0014418	0.0014808	0.001517	0.0015482	0.0015729	0.0015906	0.0016014	0.0016068	0.001609	0.001611	0.0016158	0.0016266	0.0016462	0.0016765	0.0017187	0.0017732	0.0018392	0.0019155	0.0019999	0.00209	0.0021834	0.0022775	0.0023702	0.00246	0.002546	0.0026285	0.0027086	0.0027884	0.0028705	0.0029581	0.0030541	0.0031612	0.0032813	0.003415	0.0035618	0.0037197	0.0038853	0.0040544	0.004222	0.0043831	0.0045332	0.0046693	0.0047899	0.004896	0.004991	0.0050808	0.0051733	0.0052781	0.0054052	0.0055641	0.0057626	0.0060062	0.0062975	0.0066358	0.0070181	0.0074392	0.0078922	0.0083697	0.0088638	0.0093669	0.0098721	0.010374	0.010868	0.011353	0.01183	0.012304	0.012779	0.013264	0.013768	0.014299	0.014865	0.015472	0.016123	0.016821	0.017568	0.018367	0.019221	0.020134	0.021111	0.02216	0.023288	0.024499	0.025799	0.027192	0.028683	0.030276	0.031976	0.033794	0.035739	0.037828	0.040076	0.0425	0.045119	0.047948	0.051001	0.054286	0.057811	0.061575	0.065573	0.069794	0.074218	0.078817	0.083554	0.088384	0.093255	0.098108	0.10288	0.10751	0.11193	0.11607	0.11988	0.1233	0.12626	0.12873	0.13067	0.13204	0.13283	0.13303	0.13263	0.13165	0.13009	0.12797	0.12532	0.12215	0.11849	0.11436	0.10979	0.10481	0.099465	0.093798	0.087867	0.081737	0.075477	0.069161	0.062864	0.056659	0.050615	0.044799	0.039267	0.034071	0.029252	0.024841	0.020858	0.017311	0.014196	0.011501	0.0092005	0.0072666	0.0056643	0.0043564	0.0033049	0.0024723	0.0018231	0.0013247	0.00094783	0.00066716	0.00046132	0.00031274	0.00020733	0.00013399	8.4112e-05	5.1075e-05	2.9868e-05	1.6743e-05	8.9538e-06	4.5456e-06	2.1798e-06	9.8256e-07	4.1426e-07	1.6258e-07	5.9119e-08	1.9828e-08	6.108e-09	1.7216e-09	4.4264e-10	1.0361e-10	2.2085e-11	4.3029e-12	7.7398e-13	1.3101e-13	2.1487e-14	3.5259e-15	5.8936e-16	9.9476e-17	1.6481e-17	2.5999e-18	3.8175e-19	5.1434e-20	6.3048e-21	6.9928e-22	6.99e-23	6.2766e-24	5.0478e-25	3.6256e-26	2.3194e-27	1.318e-28	6.6355e-30	2.952e-31	1.1576e-32	3.9912e-34	1.2072e-35	3.1954e-37	7.386e-39	1.4876e-40	2.6054e-42	3.96e-44	5.2139e-46	5.9361e-48	5.8343e-50	4.9426e-52	3.604e-54	2.2589e-56	1.2155e-58	5.6098e-61	2.2183e-63	7.51e-66	2.1753e-68	5.3878e-71	1.1407e-73	2.0639e-76	3.191e-79	4.2159e-82	4.7609e-85	4.5971e-88	3.7974e-91	2.6854e-94	1.6271e-97	8.4552e-101	3.7728e-104	1.4474e-107	4.7818e-111	1.3626e-114	3.355e-118	7.1526e-122	1.3231e-125	2.1288e-129	2.9862e-133	3.6622e-137	5.8089e-141	9.1765e-137	3.5216e-132	1.0576e-127	2.4861e-123	4.5756e-119	6.5971e-115	7.4574e-111	6.6158e-107	4.6121e-103	2.531e-99	1.0971e-95	3.7906e-92	1.0773e-88	2.775e-85	7.8136e-82	2.6082e-78	8.7332e-75	2.4781e-71	5.5609e-68	9.6785e-65	1.3019e-61	1.3553e-58	1.095e-55	6.8884e-53	3.3869e-50	1.3066e-47	3.971e-45	9.5486e-43	1.8246e-40
0.0010056	0.0010255	0.0010444	0.0010625	0.0010802	0.0010983	0.0011178	0.00114	0.0011658	0.0011958	0.0012302	0.001268	0.0013078	0.0013476	0.0013853	0.0014186	0.001446	0.0014667	0.0014807	0.0014893	0.0014944	0.0014986	0.0015048	0.0015161	0.0015348	0.001563	0.0016018	0.0016516	0.001712	0.0017818	0.0018594	0.0019428	0.0020296	0.0021177	0.0022052	0.0022906	0.0023732	0.0024528	0.0025305	0.002608	0.0026875	0.0027719	0.0028639	0.0029659	0.0030797	0.003206	0.0033443	0.0034929	0.0036487	0.0038079	0.0039662	0.0041191	0.0042629	0.0043949	0.0045141	0.0046216	0.0047207	0.004817	0.004918	0.0050328	0.0051708	0.0053408	0.0055505	0.0058048	0.0061063	0.0064546	0.0068466	0.0072776	0.0077412	0.0082302	0.0087372	0.0092548	0.0097762	0.010296	0.010811	0.011318	0.01182	0.01232	0.012823	0.013339	0.013876	0.014441	0.015042	0.015686	0.016376	0.017115	0.017907	0.018755	0.019663	0.020637	0.021685	0.022813	0.024029	0.025339	0.02675	0.028264	0.029888	0.031625	0.033482	0.035471	0.037603	0.039895	0.042366	0.045033	0.047916	0.051031	0.054392	0.058008	0.061885	0.066022	0.07041	0.075035	0.079872	0.084887	0.09004	0.095277	0.10054	0.10577	0.11088	0.11583	0.12053	0.12491	0.12892	0.1325	0.13559	0.13814	0.14013	0.14153	0.14232	0.14249	0.14205	0.14102	0.1394	0.13721	0.13449	0.13124	0.12749	0.12327	0.11859	0.11348	0.10798	0.10213	0.095991	0.08961	0.083061	0.076417	0.069755	0.063151	0.05668	0.050413	0.044415	0.038744	0.03345	0.028571	0.024135	0.020155	0.016636	0.013568	0.01093	0.0086949	0.0068286	0.0052927	0.0040475	0.003053	0.0022706	0.0016643	0.0012015	0.00085348	0.00059575	0.00040786	0.00027321	0.00017852	0.0001134	6.9756e-05	4.1374e-05	2.3557e-05	1.2816e-05	6.6307e-06	3.2469e-06	1.4976e-06	6.4763e-07	2.6136e-07	9.8003e-08	3.4006e-08	1.0881e-08	3.2011e-09	8.6473e-10	2.1463e-10	4.9163e-11	1.0497e-11	2.1264e-12	4.1883e-13	8.2212e-14	1.6275e-14	3.2214e-15	6.2305e-16	1.1482e-16	1.9772e-17	3.1395e-18	4.5591e-19	6.0211e-20	7.2028e-21	7.7782e-22	7.5596e-23	6.5934e-24	5.1465e-25	3.5852e-26	2.2231e-27	1.2238e-28	5.9655e-30	2.5685e-31	9.7443e-33	3.2496e-34	9.5038e-36	2.4322e-37	5.4351e-39	1.0583e-40	1.7922e-42	2.6345e-44	3.3557e-46	3.6975e-48	3.519e-50	2.8885e-52	2.0422e-54	1.2421e-56	6.4927e-59	2.9137e-61	1.1217e-63	3.7019e-66	1.0468e-68	2.5349e-71	5.2563e-74	9.3309e-77	1.4181e-79	1.8456e-82	2.0576e-85	1.9659e-88	1.6107e-91	1.1327e-94	6.8436e-98	3.5562e-101	1.5914e-104	6.1421e-108	2.0479e-111	5.9088e-115	1.4783e-118	3.2138e-122	6.0847e-126	1.0058e-129	1.4553e-133	1.8482e-137	2.2869e-139	9.1821e-135	2.9157e-130	7.2564e-126	1.4159e-121	2.1671e-117	2.6043e-113	2.4619e-109	1.8403e-105	1.1085e-101	5.7506e-98	3.0489e-94	1.9609e-90	1.3806e-86	8.619e-83	4.2989e-79	1.66e-75	4.9277e-72	1.1244e-68	1.9759e-65	2.6814e-62	2.8186e-59	2.3025e-56	1.4669e-53	7.3149e-51	2.8662e-48	8.8603e-46	2.17e-43	4.2287e-41
0.00091743	0.00093273	0.00094693	0.00096035	0.00097355	0.00098743	0.0010031	0.0010219	0.0010447	0.0010723	0.0011047	0.0011412	0.0011803	0.0012201	0.0012585	0.0012932	0.0013226	0.0013459	0.0013629	0.0013746	0.0013828	0.0013898	0.0013984	0.001411	0.00143	0.0014572	0.0014935	0.0015395	0.0015948	0.0016584	0.0017291	0.0018051	0.0018846	0.0019658	0.0020468	0.0021266	0.0022043	0.0022799	0.002354	0.0024281	0.0025042	0.0025847	0.0026721	0.0027686	0.0028757	0.0029942	0.0031238	0.0032629	0.003409	0.0035587	0.0037082	0.0038537	0.0039919	0.0041208	0.0042395	0.0043492	0.0044531	0.0045564	0.0046662	0.0047907	0.0049387	0.0051186	0.0053375	0.0056003	0.0059093	0.0062643	0.0066628	0.0071002	0.0075706	0.0080673	0.0085833	0.0091115	0.0096455	0.01018	0.010711	0.011238	0.011762	0.012286	0.012816	0.013361	0.013929	0.014527	0.015163	0.015842	0.01657	0.017349	0.018184	0.019079	0.020039	0.021072	0.022186	0.023389	0.02469	0.026094	0.027608	0.029237	0.030986	0.032859	0.034867	0.037019	0.03933	0.041818	0.044503	0.047405	0.050543	0.053935	0.057593	0.061528	0.065743	0.070234	0.074991	0.079995	0.085215	0.090615	0.096144	0.10174	0.10735	0.1129	0.11831	0.12352	0.12844	0.13301	0.13717	0.14086	0.14402	0.14662	0.14862	0.15001	0.15077	0.15091	0.15042	0.14933	0.14765	0.14541	0.14263	0.13933	0.13553	0.13124	0.1265	0.12132	0.11573	0.10977	0.10348	0.096921	0.090158	0.083261	0.076307	0.069374	0.062541	0.055884	0.049473	0.043375	0.037645	0.032329	0.027464	0.023071	0.019159	0.015724	0.01275	0.010212	0.008077	0.0063065	0.0048598	0.0036948	0.0027705	0.002048	0.0014915	0.0010691	0.00075325	0.00052075	0.00035242	0.00023281	0.00014962	9.321e-05	5.6055e-05	3.2405e-05	1.7928e-05	9.4487e-06	4.7227e-06	2.2285e-06	9.8832e-07	4.1024e-07	1.5876e-07	5.7085e-08	1.9026e-08	5.8706e-09	1.6789e-09	4.4703e-10	1.1187e-10	2.6727e-11	6.2195e-12	1.4363e-12	3.3185e-13	7.6125e-14	1.7019e-14	3.6315e-15	7.2698e-16	1.3488e-16	2.3007e-17	3.5875e-18	5.0926e-19	6.5583e-20	7.6385e-21	8.0227e-22	7.5771e-23	6.4176e-24	4.8611e-25	3.2843e-26	1.9741e-27	1.0529e-28	4.9706e-30	2.072e-31	7.6084e-33	2.4553e-34	6.9484e-36	1.7206e-37	3.7206e-39	7.0116e-41	1.1494e-42	1.6362e-44	2.0192e-46	2.1567e-48	1.991e-50	1.5865e-52	1.0898e-54	6.4472e-57	3.2812e-59	1.4355e-61	5.3948e-64	1.7406e-66	4.8193e-69	1.1448e-71	2.3327e-74	4.0773e-77	6.1144e-80	7.8692e-83	8.6958e-86	8.2558e-89	6.7394e-92	4.7347e-95	2.8659e-98	1.4965e-101	6.7505e-105	2.6348e-108	8.9135e-112	2.6187e-115	6.6952e-119	1.4929e-122	2.9104e-126	4.973e-130	7.4684e-134	9.8865e-138	2.1738e-137	7.2723e-133	1.91e-128	3.9415e-124	6.4107e-120	8.3226e-116	9.0569e-112	9.5828e-108	1.2211e-103	1.8155e-99	2.5011e-95	2.7862e-91	2.4038e-87	1.5894e-83	8.0422e-80	3.1175e-76	9.276e-73	2.1236e-69	3.7503e-66	5.1238e-63	5.4321e-60	4.4833e-57	2.8906e-54	1.4612e-51	5.813e-49	1.8273e-46	4.5571e-44	9.0558e-42
0.00083887	0.00084975	0.00085939	0.00086825	0.00087703	0.00088675	0.00089862	0.00091387	0.0009336	0.00095845	0.00098848	0.001023	0.0010608	0.0010998	0.001138	0.0011734	0.0012041	0.0012293	0.0012489	0.0012636	0.001275	0.0012851	0.0012963	0.001311	0.001331	0.001358	0.0013928	0.0014357	0.0014864	0.0015443	0.0016082	0.0016768	0.0017485	0.001822	0.0018959	0.0019691	0.002041	0.0021115	0.0021813	0.0022513	0.0023233	0.0023994	0.0024817	0.0025722	0.0026724	0.0027829	0.0029037	0.0030333	0.0031698	0.0033102	0.0034513	0.00359	0.0037234	0.0038499	0.0039689	0.0040816	0.0041909	0.0043015	0.0044198	0.0045536	0.0047107	0.0048992	0.0051254	0.0053942	0.0057079	0.0060666	0.0064679	0.0069078	0.007381	0.0078812	0.0084019	0.0089364	0.0094787	0.010024	0.010568	0.011111	0.011653	0.012199	0.012754	0.013326	0.013923	0.014552	0.015221	0.015935	0.016699	0.017516	0.018392	0.019332	0.020341	0.02143	0.022605	0.023878	0.025257	0.026748	0.028359	0.030094	0.031959	0.033961	0.036109	0.038416	0.040896	0.043571	0.04646	0.049584	0.052965	0.056618	0.060559	0.064794	0.069326	0.074148	0.079246	0.084597	0.090166	0.095908	0.10177	0.10769	0.11359	0.11941	0.12506	0.13047	0.13556	0.14026	0.14452	0.14826	0.15146	0.15406	0.15605	0.15741	0.15812	0.1582	0.15766	0.15652	0.15479	0.1525	0.14968	0.14634	0.14251	0.1382	0.13344	0.12823	0.1226	0.11658	0.11021	0.10355	0.09664	0.089564	0.082392	0.075203	0.068077	0.061095	0.054333	0.047861	0.041743	0.036033	0.030773	0.025993	0.021709	0.017922	0.014622	0.011787	0.0093847	0.0073786	0.0057272	0.0043872	0.0033157	0.0024711	0.0018149	0.0013124	0.00093324	0.00065141	0.00044534	0.00029738	0.00019335	0.00012196	7.4355e-05	4.3632e-05	2.4541e-05	1.3174e-05	6.7209e-06	3.2448e-06	1.4766e-06	6.3101e-07	2.5246e-07	9.4347e-08	3.2906e-08	1.0724e-08	3.2798e-09	9.4949e-10	2.6363e-10	7.1352e-11	1.9094e-11	5.0809e-12	1.3361e-12	3.4201e-13	8.3748e-14	1.9322e-14	4.1531e-15	8.2498e-16	1.5059e-16	2.5152e-17	3.83e-18	5.3006e-19	6.6476e-20	7.5331e-21	7.6921e-22	7.0582e-23	5.8042e-24	4.2663e-25	2.7956e-26	1.629e-27	8.42e-29	3.851e-30	1.5548e-31	5.529e-33	1.7278e-34	4.7349e-36	1.1355e-37	2.3785e-39	4.3431e-41	6.9014e-43	9.5275e-45	1.1409e-46	1.1834e-48	1.0617e-50	8.2297e-53	5.5051e-55	3.1749e-57	1.5773e-59	6.7454e-62	2.4818e-64	7.8519e-67	2.1356e-69	4.9928e-72	1.0033e-74	1.7331e-77	2.5745e-80	3.2898e-83	3.6188e-86	3.429e-89	2.8015e-92	1.9755e-95	1.2039e-98	6.3488e-102	2.9019e-105	1.1515e-108	3.9747e-112	1.1958e-115	3.1423e-119	7.2297e-123	1.46e-126	2.595e-130	4.0707e-134	5.6995e-138	1.6493e-135	4.6284e-131	1.0786e-126	2.3962e-122	6.385e-118	2.0504e-113	6.2516e-109	1.5525e-104	2.9889e-100	4.405e-96	4.9579e-92	4.2629e-88	2.8034e-84	1.4124e-80	5.4615e-77	1.6244e-73	3.725e-70	6.6029e-67	9.0726e-64	9.6921e-61	8.0756e-58	5.2659e-55	2.6969e-52	1.0888e-49	3.479e-47	8.8331e-45	1.7896e-42
0.00076934	0.00077618	0.00078163	0.00078629	0.00079098	0.00079681	0.00080502	0.00081689	0.00083348	0.00085545	0.00088286	0.0009151	0.00095089	0.00098847	0.0010258	0.0010609	0.0010922	0.0011187	0.0011403	0.0011575	0.0011717	0.0011848	0.0011988	0.0012157	0.0012372	0.0012645	0.0012983	0.0013388	0.0013856	0.0014382	0.0014957	0.001557	0.001621	0.0016867	0.001753	0.0018192	0.0018848	0.0019497	0.0020144	0.0020799	0.0021474	0.0022187	0.0022957	0.0023801	0.0024731	0.0025755	0.0026873	0.0028074	0.0029343	0.0030656	0.0031987	0.0033309	0.0034601	0.0035847	0.0037046	0.0038206	0.0039355	0.0040535	0.0041802	0.0043225	0.0044878	0.0046832	0.0049149	0.0051874	0.0055029	0.0058619	0.0062624	0.0067009	0.0071726	0.0076719	0.0081926	0.0087288	0.0092748	0.009826	0.010379	0.010934	0.011492	0.012056	0.012633	0.01323	0.013854	0.014512	0.015212	0.015959	0.016756	0.01761	0.018523	0.019504	0.020559	0.021698	0.022931	0.024268	0.025718	0.027289	0.028987	0.03082	0.032793	0.034913	0.037191	0.039641	0.042279	0.045127	0.048206	0.051539	0.055145	0.059043	0.063244	0.067757	0.072579	0.077703	0.08311	0.088772	0.094649	0.10069	0.10684	0.11302	0.11917	0.1252	0.13104	0.1366	0.1418	0.14659	0.15089	0.15466	0.15785	0.16043	0.16237	0.16368	0.16433	0.16435	0.16375	0.16255	0.16077	0.15845	0.1556	0.15225	0.14841	0.14411	0.13935	0.13415	0.12852	0.1225	0.11611	0.1094	0.10241	0.095227	0.087907	0.080533	0.073185	0.065945	0.058895	0.052108	0.045656	0.039599	0.033987	0.028856	0.024229	0.020114	0.016505	0.013384	0.010723	0.0084863	0.0066321	0.0051168	0.0038961	0.0029264	0.002167	0.0015805	0.001134	0.00079907	0.00055177	0.00037239	0.0002449	0.00015641	9.6654e-05	5.7569e-05	3.292e-05	1.8001e-05	9.3756e-06	4.6339e-06	2.1659e-06	9.5463e-07	3.9595e-07	1.5443e-07	5.6704e-08	1.9679e-08	6.5031e-09	2.0687e-09	6.417e-10	1.9625e-10	5.9423e-11	1.7728e-11	5.148e-12	1.434e-12	3.7803e-13	9.3319e-14	2.1403e-14	4.5346e-15	8.8352e-16	1.5773e-16	2.5719e-17	3.8187e-18	5.1481e-19	6.284e-20	6.926e-21	6.8739e-22	6.1269e-23	4.8915e-24	3.489e-25	2.2177e-26	1.253e-27	6.2783e-29	2.783e-30	1.0889e-31	3.7523e-33	1.1364e-34	3.0183e-36	7.0175e-38	1.4255e-39	2.5254e-41	3.8955e-43	5.2237e-45	6.0807e-47	6.1362e-49	5.3615e-51	4.0516e-53	2.6454e-55	1.4912e-57	7.251e-60	3.0399e-62	1.0983e-64	3.4183e-67	9.1639e-70	2.116e-72	4.2088e-75	7.2133e-78	1.0656e-80	1.3578e-83	1.4932e-86	1.4186e-89	1.1654e-92	8.2887e-96	5.1109e-99	2.7362e-102	1.274e-105	5.1682e-109	1.8303e-112	5.6711e-116	1.5408e-119	3.68e-123	7.7464e-127	1.4411e-130	2.3765e-134	8.4246e-138	2.9556e-133	2.126e-128	1.4368e-123	7.8808e-119	3.3512e-114	1.0918e-109	2.7175e-105	5.1657e-101	7.5028e-97	8.3332e-93	7.0858e-89	4.6191e-85	2.3121e-81	8.9039e-78	2.6434e-74	6.0639e-71	1.0776e-67	1.4875e-64	1.5997e-61	1.3445e-58	8.8604e-56	4.5944e-53	1.8815e-50	6.1081e-48	1.5783e-45	3.2594e-43
0.00070837	0.0007117	0.00071352	0.00071452	0.00071564	0.00071804	0.00072299	0.00073175	0.00074537	0.00076447	0.00078913	0.00081875	0.00085216	0.00088769	0.00092344	0.00095757	0.00098859	0.0010156	0.0010383	0.0010574	0.0010739	0.0010896	0.0011061	0.0011252	0.0011482	0.0011761	0.0012092	0.0012477	0.0012911	0.001339	0.0013905	0.001445	0.0015017	0.0015597	0.0016186	0.0016777	0.0017368	0.001796	0.0018555	0.0019161	0.0019789	0.0020454	0.0021169	0.0021949	0.0022807	0.0023749	0.0024776	0.0025883	0.0027056	0.0028278	0.0029529	0.0030789	0.003204	0.0033271	0.0034479	0.0035675	0.0036879	0.0038128	0.0039473	0.0040974	0.0042697	0.0044706	0.0047058	0.0049796	0.0052942	0.0056503	0.0060464	0.0064795	0.0069454	0.0074392	0.0079553	0.0084882	0.0090331	0.0095858	0.010144	0.010707	0.011276	0.011856	0.012451	0.01307	0.013718	0.014403	0.015131	0.015908	0.016736	0.017622	0.018571	0.019589	0.020685	0.02187	0.023154	0.024547	0.026061	0.027703	0.02948	0.031401	0.03347	0.035697	0.038094	0.040674	0.043457	0.046463	0.049716	0.053238	0.05705	0.06117	0.065608	0.07037	0.075453	0.080846	0.086525	0.092458	0.098601	0.1049	0.11129	0.11769	0.12403	0.13022	0.13619	0.14185	0.14713	0.15196	0.15627	0.16002	0.16318	0.16571	0.16759	0.16882	0.16941	0.16936	0.1687	0.16745	0.16563	0.16328	0.16042	0.15707	0.15324	0.14896	0.14424	0.13907	0.13349	0.1275	0.12113	0.11442	0.10742	0.10018	0.092778	0.085284	0.07778	0.07035	0.063075	0.056035	0.049307	0.042955	0.037038	0.031597	0.026662	0.022249	0.018355	0.014968	0.012062	0.0096046	0.0075544	0.0058679	0.0044998	0.0034052	0.0025414	0.001869	0.0013528	0.00096204	0.00067086	0.00045755	0.00030433	0.00019677	0.00012325	7.4512e-05	4.3324e-05	2.4139e-05	1.2843e-05	6.505e-06	3.1279e-06	1.4253e-06	6.1498e-07	2.5154e-07	9.7857e-08	3.6434e-08	1.3098e-08	4.5935e-09	1.5852e-09	5.4008e-10	1.81e-10	5.9093e-11	1.8562e-11	5.5433e-12	1.5582e-12	4.0911e-13	9.9743e-14	2.2478e-14	4.6648e-15	8.8852e-16	1.5486e-16	2.4625e-17	3.5625e-18	4.676e-19	5.5534e-20	5.9514e-21	5.74e-22	4.9694e-23	3.8518e-24	2.6663e-25	1.6442e-26	9.0107e-28	4.3784e-29	1.882e-30	7.1406e-32	2.3863e-33	7.0097e-35	1.8064e-36	4.0764e-38	8.0408e-40	1.3841e-41	2.0758e-43	2.7086e-45	3.0707e-47	3.021e-49	2.5763e-51	1.9025e-53	1.2156e-55	6.7151e-58	3.2052e-60	1.3213e-62	4.7025e-65	1.4447e-67	3.8308e-70	8.7689e-73	1.7331e-75	2.9588e-78	4.3654e-81	5.5702e-84	6.1521e-87	5.8871e-90	4.8866e-93	3.5231e-96	2.2094e-99	1.2071e-102	5.7566e-106	2.4006e-109	8.7731e-113	2.8159e-116	7.9577e-120	1.985e-123	4.3824e-127	8.5882e-131	1.4985e-134	3.9926e-134	3.677e-129	2.6019e-124	1.4108e-119	5.8559e-115	1.8602e-110	4.5227e-106	8.4183e-102	1.2004e-97	1.3123e-93	1.1012e-89	7.1024e-86	3.5263e-82	1.3502e-78	3.995e-75	9.1555e-72	1.6291e-68	2.2567e-65	2.4406e-62	2.0672e-59	1.3756e-56	7.2173e-54	2.996e-51	9.8772e-49	2.5963e-46	5.4635e-44
0.00065534	0.00065577	0.00065462	0.00065265	0.00065086	0.00065042	0.00065263	0.0006587	0.00066965	0.00068605	0.00070796	0.00073483	0.00076554	0.00079856	0.00083214	0.00086459	0.00089455	0.00092118	0.00094433	0.00096447	0.00098264	0.0010003	0.0010188	0.0010397	0.001064	0.0010923	0.0011249	0.0011616	0.0012021	0.0012457	0.001292	0.0013403	0.0013902	0.0014412	0.0014931	0.0015455	0.0015985	0.0016519	0.0017062	0.001762	0.0018201	0.0018815	0.0019475	0.0020192	0.0020977	0.0021836	0.0022773	0.0023783	0.0024861	0.0025992	0.0027164	0.0028361	0.002957	0.0030784	0.0032001	0.0033227	0.0034482	0.0035795	0.003721	0.0038779	0.0040559	0.0042607	0.0044975	0.0047703	0.0050815	0.0054317	0.0058199	0.0062438	0.0066998	0.0071836	0.0076903	0.0082153	0.0087543	0.0093038	0.0098619	0.010429	0.011005	0.011597	0.012207	0.012844	0.013514	0.014222	0.014975	0.015778	0.016634	0.017548	0.018527	0.019578	0.020711	0.021935	0.023263	0.024706	0.026276	0.02798	0.029827	0.031824	0.033979	0.036301	0.038802	0.041498	0.044409	0.047556	0.050964	0.054655	0.05865	0.062965	0.067612	0.072594	0.077905	0.08353	0.089443	0.095607	0.10197	0.10848	0.11506	0.12163	0.12812	0.13444	0.14049	0.14621	0.15152	0.15635	0.16065	0.16436	0.16746	0.16992	0.17173	0.17289	0.1734	0.17329	0.17257	0.17127	0.16942	0.16705	0.16418	0.16084	0.15704	0.1528	0.14813	0.14302	0.1375	0.13158	0.12526	0.1186	0.11162	0.10439	0.096956	0.089402	0.081803	0.074243	0.066805	0.059573	0.052626	0.046035	0.039862	0.034157	0.028956	0.024278	0.02013	0.016501	0.01337	0.010707	0.0084726	0.0066231	0.0051131	0.003897	0.0029304	0.0021723	0.0015856	0.0011378	0.00080111	0.00055206	0.00037133	0.00024304	0.0001543	9.4701e-05	5.6004e-05	3.1811e-05	1.7304e-05	8.993e-06	4.4572e-06	2.1054e-06	9.4855e-07	4.0875e-07	1.6932e-07	6.7911e-08	2.6589e-08	1.0232e-08	3.8816e-09	1.4476e-09	5.2664e-10	1.8495e-10	6.2036e-11	1.9687e-11	5.8668e-12	1.632e-12	4.2178e-13	1.0088e-13	2.2256e-14	4.5143e-15	8.3949e-16	1.4271e-16	2.2118e-17	3.1163e-18	3.9811e-19	4.5989e-20	4.7914e-21	4.4903e-22	3.7758e-23	2.8415e-24	1.9092e-25	1.1426e-26	6.0759e-28	2.8646e-29	1.1948e-30	4.3991e-32	1.427e-33	4.07e-35	1.0188e-36	2.2344e-38	4.286e-40	7.1796e-42	1.0488e-43	1.3341e-45	1.476e-47	1.4188e-49	1.1837e-51	8.5642e-54	5.3692e-56	2.915e-58	1.3699e-60	5.5704e-63	1.9595e-65	5.963e-68	1.5698e-70	3.5758e-73	7.0507e-76	1.204e-78	1.7818e-81	2.2871e-84	2.5486e-87	2.4684e-90	2.0805e-93	1.5282e-96	9.7982e-100	5.493e-103	2.6977e-106	1.1631e-109	4.4115e-113	1.4756e-116	4.3634e-120	1.1438e-123	2.6651e-127	5.5368e-131	1.7921e-134	6.7713e-130	4.6165e-125	2.4174e-120	9.7171e-116	2.9979e-111	7.0989e-107	1.2906e-102	1.8026e-98	1.9356e-94	1.5997e-90	1.0188e-86	5.0082e-83	1.9035e-79	5.6048e-76	1.2813e-72	2.2799e-69	3.1654e-66	3.439e-63	2.9325e-60	1.9689e-57	1.0443e-54	4.3912e-52	1.4693e-49	3.9269e-47	8.4166e-45
0.00060929	0.00060749	0.00060408	0.00059987	0.00059587	0.00059329	0.00059336	0.00059727	0.00060594	0.00061992	0.00063922	0.00066333	0.00069119	0.0007214	0.00075238	0.0007826	0.00081087	0.00083645	0.00085923	0.00087967	0.0008987	0.00091753	0.00093746	0.00095959	0.00098473	0.0010133	0.0010453	0.0010804	0.0011182	0.0011581	0.0011997	0.0012426	0.0012866	0.0013314	0.001377	0.0014234	0.0014706	0.0015187	0.0015681	0.0016191	0.0016724	0.0017288	0.0017892	0.0018546	0.0019258	0.0020035	0.0020881	0.0021797	0.0022777	0.0023818	0.0024909	0.0026041	0.0027207	0.0028399	0.0029618	0.0030869	0.0032166	0.0033534	0.0035008	0.0036632	0.0038455	0.0040527	0.0042894	0.0045592	0.0048644	0.005206	0.0055833	0.0059945	0.0064368	0.0069064	0.0073995	0.0079121	0.0084407	0.0089825	0.0095363	0.010102	0.010683	0.011281	0.011903	0.012555	0.013241	0.013969	0.014742	0.015566	0.016445	0.017383	0.018388	0.019467	0.02063	0.021888	0.023253	0.024738	0.026354	0.02811	0.030016	0.032079	0.034307	0.03671	0.039301	0.042097	0.045118	0.048387	0.051927	0.055763	0.059914	0.064398	0.069223	0.074391	0.079895	0.085715	0.091823	0.098177	0.10472	0.1114	0.11813	0.12483	0.13142	0.13782	0.14393	0.14967	0.15498	0.15979	0.16404	0.1677	0.17073	0.17311	0.17484	0.17592	0.17637	0.17619	0.17542	0.17408	0.1722	0.16982	0.16696	0.16364	0.15988	0.15569	0.15107	0.14604	0.1406	0.13476	0.12853	0.12194	0.11502	0.10783	0.10042	0.092852	0.085212	0.077578	0.070035	0.062668	0.055558	0.048781	0.042405	0.036484	0.03106	0.026158	0.021788	0.017947	0.014616	0.011768	0.0093642	0.007364	0.0057213	0.00439	0.0033249	0.0024837	0.0018278	0.0013231	0.00094036	0.00065464	0.00044523	0.00029499	0.00018983	0.0001183	7.1178e-05	4.1242e-05	2.2959e-05	1.226e-05	6.2758e-06	3.0811e-06	1.454e-06	6.622e-07	2.9276e-07	1.2647e-07	5.368e-08	2.2448e-08	9.2307e-09	3.7097e-09	1.4442e-09	5.3946e-10	1.9164e-10	6.4269e-11	2.0226e-11	5.9439e-12	1.6247e-12	4.116e-13	9.6342e-14	2.0773e-14	4.1143e-15	7.4642e-16	1.237e-16	1.8676e-17	2.5618e-18	3.1842e-19	3.5772e-20	3.6226e-21	3.2988e-22	2.6944e-23	1.9691e-24	1.2846e-25	7.4632e-27	3.853e-28	1.7637e-29	7.1431e-31	2.5546e-32	8.0516e-34	2.2324e-35	5.4352e-37	1.1601e-38	2.1675e-40	3.5396e-42	5.0454e-44	6.2699e-46	6.785e-48	6.3876e-50	5.2269e-52	3.7148e-54	2.2916e-56	1.2265e-58	5.6928e-61	2.2911e-63	7.994e-66	2.4184e-68	6.3447e-71	1.444e-73	2.8523e-76	4.8932e-79	7.2959e-82	9.464e-85	1.0691e-87	1.0532e-90	9.0594e-94	6.8151e-97	4.4913e-100	2.5977e-103	1.3213e-106	5.9229e-110	2.3454e-113	8.224e-117	2.5603e-120	7.0963e-124	1.7562e-127	3.8928e-131	1.194e-130	7.8121e-126	3.9379e-121	1.5285e-116	4.5674e-112	1.0507e-107	1.8612e-103	2.5403e-99	2.6733e-95	2.1714e-91	1.363e-87	6.6214e-84	2.4938e-80	7.2953e-77	1.6613e-73	2.9516e-70	4.1022e-67	4.4718e-64	3.8348e-61	2.5951e-58	1.3903e-55	5.9175e-53	2.0081e-50	5.4536e-48	1.1899e-45
0.00056894	0.00056552	0.00056053	0.00055479	0.00054932	0.00054528	0.00054386	0.00054617	0.00055304	0.00056496	0.0005819	0.00060337	0.0006284	0.00065569	0.00068384	0.00071149	0.00073761	0.00076161	0.00078342	0.0008035	0.0008227	0.00084208	0.00086271	0.00088549	0.00091098	0.00093938	0.00097053	0.001004	0.0010394	0.0010761	0.0011137	0.001152	0.0011909	0.0012304	0.0012707	0.0013118	0.0013539	0.0013972	0.0014419	0.0014883	0.001537	0.0015884	0.0016433	0.0017023	0.0017663	0.0018359	0.0019115	0.0019936	0.0020821	0.002177	0.002278	0.0023845	0.0024962	0.0026128	0.0027341	0.0028607	0.0029935	0.0031345	0.0032865	0.0034531	0.0036382	0.0038463	0.0040812	0.0043462	0.0046434	0.004974	0.0053377	0.0057333	0.0061584	0.0066104	0.0070859	0.0075821	0.008096	0.008626	0.0091712	0.0097325	0.010312	0.010914	0.011542	0.012203	0.012902	0.013643	0.014432	0.015272	0.016169	0.017126	0.018151	0.019251	0.020438	0.021722	0.023118	0.024636	0.026289	0.028088	0.030041	0.032157	0.034444	0.036913	0.039578	0.042456	0.045567	0.048936	0.052585	0.05654	0.06082	0.065442	0.070412	0.075733	0.081393	0.087371	0.093634	0.10014	0.10682	0.11363	0.12046	0.12726	0.13392	0.14036	0.14649	0.15224	0.15752	0.16229	0.16649	0.17008	0.17303	0.17534	0.17699	0.178	0.17838	0.17815	0.17733	0.17596	0.17407	0.17168	0.16883	0.16554	0.16182	0.15768	0.15314	0.14819	0.14284	0.1371	0.13096	0.12447	0.11764	0.11052	0.10316	0.095621	0.087984	0.080325	0.072728	0.065278	0.058059	0.05115	0.044622	0.038534	0.032932	0.027847	0.023294	0.019273	0.01577	0.01276	0.010207	0.0080719	0.0063089	0.0048719	0.0037152	0.0027957	0.0020736	0.0015139	0.0010858	0.0007635	0.00052499	0.00035208	0.00022968	0.00014535	8.9014e-05	5.2644e-05	3.0021e-05	1.6495e-05	8.735e-06	4.466e-06	2.2116e-06	1.0658e-06	5.0243e-07	2.3281e-07	1.0629e-07	4.7765e-08	2.1024e-08	8.9962e-09	3.7107e-09	1.4632e-09	5.4756e-10	1.933e-10	6.4052e-11	1.9839e-11	5.7233e-12	1.5328e-12	3.7997e-13	8.693e-14	1.8304e-14	3.5372e-15	6.257e-16	1.0104e-16	1.4854e-17	1.9831e-18	2.3978e-19	2.6193e-20	2.5783e-21	2.2814e-22	1.8103e-23	1.2851e-24	8.143e-26	4.5954e-27	2.3046e-28	1.025e-29	4.0349e-31	1.403e-32	4.3017e-34	1.1609e-35	2.7531e-37	5.7284e-39	1.0443e-40	1.6656e-42	2.3216e-44	2.8245e-46	2.9967e-48	2.77e-50	2.2291e-52	1.5607e-54	9.5024e-57	5.0293e-59	2.3133e-61	9.2465e-64	3.2118e-66	9.6967e-69	2.5453e-71	5.8117e-74	1.155e-76	1.9993e-79	3.0173e-82	3.9741e-85	4.5736e-88	4.6056e-91	4.064e-94	3.1476e-97	2.1437e-100	1.2863e-103	6.8147e-107	3.1947e-110	1.3285e-113	4.9131e-117	1.6202e-120	4.7779e-124	1.2638e-127	5.0216e-131	1.2606e-126	6.0988e-122	2.2793e-117	6.5786e-113	1.4663e-108	2.5246e-104	3.3591e-100	3.4566e-96	2.7535e-92	1.7e-88	8.1461e-85	3.0347e-81	8.8053e-78	1.9941e-74	3.5327e-71	4.908e-68	5.3615e-65	4.6186e-62	3.1468e-59	1.7013e-56	7.3229e-54	2.5184e-51	6.945e-49	1.5417e-46
0.00053271	0.00052823	0.00052228	0.00051566	0.00050938	0.00050453	0.00050224	0.00050349	0.00050905	0.00051931	0.00053423	0.00055331	0.00057566	0.00060011	0.00062541	0.00065038	0.00067415	0.00069627	0.00071673	0.00073599	0.00075484	0.0007742	0.00079498	0.00081786	0.00084322	0.0008711	0.00090121	0.00093309	0.00096619	0.001	0.0010343	0.0010688	0.0011035	0.0011387	0.0011745	0.0012111	0.0012488	0.0012877	0.0013281	0.0013702	0.0014142	0.0014607	0.00151	0.0015627	0.0016195	0.0016811	0.001748	0.0018209	0.0019002	0.0019862	0.002079	0.0021786	0.0022851	0.0023982	0.002518	0.0026449	0.0027795	0.0029234	0.0030785	0.0032477	0.0034343	0.0036417	0.0038733	0.0041319	0.0044195	0.0047372	0.0050851	0.0054625	0.0058678	0.0062991	0.0067539	0.0072301	0.0077258	0.00824	0.0087727	0.0093249	0.0098993	0.010499	0.011129	0.011795	0.0125	0.013249	0.014048	0.014898	0.015806	0.016776	0.017814	0.01893	0.020133	0.021437	0.022854	0.024397	0.026078	0.027907	0.029896	0.032051	0.034383	0.036902	0.039623	0.042563	0.045744	0.049188	0.052922	0.056968	0.061347	0.066074	0.071157	0.076594	0.082373	0.088471	0.094851	0.10146	0.10825	0.11514	0.12206	0.12891	0.13561	0.14206	0.1482	0.15392	0.15918	0.16389	0.16803	0.17155	0.17443	0.17667	0.17825	0.1792	0.17952	0.17924	0.17839	0.177	0.1751	0.17272	0.16988	0.16662	0.16295	0.15887	0.1544	0.14954	0.14428	0.13863	0.13261	0.12622	0.11949	0.11246	0.10518	0.097709	0.090111	0.082468	0.074861	0.067376	0.060098	0.053107	0.046476	0.040269	0.034536	0.029311	0.024614	0.020448	0.016804	0.013659	0.01098	0.0087286	0.0068606	0.00533	0.0040911	0.0031001	0.002317	0.0017054	0.0012342	0.00087636	0.00060915	0.00041348	0.00027343	0.00017575	0.00010959	6.6193e-05	3.8696e-05	2.1898e-05	1.2011e-05	6.4016e-06	3.3279e-06	1.6948e-06	8.4902e-07	4.1935e-07	2.0413e-07	9.7567e-08	4.5504e-08	2.0552e-08	8.9194e-09	3.6934e-09	1.4504e-09	5.3735e-10	1.8703e-10	6.0924e-11	1.8513e-11	5.2314e-12	1.3708e-12	3.3215e-13	7.4212e-14	1.5249e-14	2.8737e-15	4.954e-16	7.7916e-17	1.1151e-17	1.4486e-18	1.7036e-19	1.8094e-20	1.7313e-21	1.4889e-22	1.148e-23	7.9196e-25	4.8768e-26	2.6749e-27	1.3042e-28	5.6409e-30	2.1604e-31	7.3125e-33	2.1839e-34	5.7449e-36	1.3292e-37	2.7007e-39	4.8129e-41	7.5132e-43	1.0263e-44	1.2254e-46	1.2778e-48	1.1628e-50	9.2288e-53	6.3847e-55	3.8488e-57	2.0212e-59	9.2451e-62	3.6835e-64	1.2786e-66	3.8675e-69	1.0199e-71	2.3463e-74	4.712e-77	8.268e-80	1.2689e-82	1.7052e-85	2.0092e-88	2.0788e-91	1.8917e-94	1.5166e-97	1.0733e-100	6.7193e-104	3.729e-107	1.839e-110	8.0788e-114	3.1701e-117	1.1142e-120	3.5177e-124	1.0008e-127	1.9402e-127	8.9808e-123	3.2224e-118	8.9583e-114	1.9295e-109	3.2206e-105	4.1675e-101	4.1836e-97	3.2611e-93	1.9762e-89	9.3222e-86	3.4287e-82	9.8501e-79	2.2148e-75	3.9062e-72	5.4171e-69	5.9222e-66	5.1182e-63	3.5071e-60	1.9113e-57	8.3119e-55	2.8943e-52	8.0987e-50	1.8278e-47
0.00049892	0.00049385	0.00048744	0.0004805	0.00047397	0.00046888	0.00046625	0.00046697	0.00047169	0.00048071	0.00049398	0.00051099	0.00053094	0.00055277	0.00057539	0.00059779	0.00061926	0.00063944	0.00065842	0.00067665	0.00069485	0.00071383	0.00073433	0.00075691	0.00078177	0.00080883	0.00083773	0.00086797	0.000899	0.00093037	0.0009618	0.00099317	0.0010246	0.0010562	0.0010884	0.0011213	0.0011551	0.0011902	0.0012265	0.0012644	0.0013039	0.0013454	0.0013891	0.0014356	0.0014854	0.0015393	0.0015979	0.0016621	0.0017325	0.0018099	0.0018947	0.0019874	0.0020883	0.0021974	0.0023148	0.0024408	0.0025759	0.0027211	0.0028778	0.0030482	0.0032346	0.00344	0.0036669	0.0039177	0.0041942	0.0044975	0.0048281	0.0051855	0.005569	0.0059771	0.0064086	0.006862	0.0073364	0.0078315	0.0083478	0.008887	0.0094515	0.010045	0.010671	0.011335	0.012041	0.012792	0.013593	0.014448	0.01536	0.016335	0.01738	0.018504	0.019717	0.021031	0.022461	0.024018	0.025716	0.027565	0.029576	0.031757	0.034118	0.03667	0.039428	0.04241	0.045637	0.049133	0.052923	0.057032	0.06148	0.06628	0.071441	0.076958	0.082819	0.088998	0.095456	0.10214	0.109	0.11594	0.1229	0.12978	0.13649	0.14294	0.14906	0.15476	0.15997	0.16463	0.16871	0.17216	0.17498	0.17715	0.17868	0.17957	0.17985	0.17953	0.17866	0.17726	0.17536	0.17299	0.17019	0.16696	0.16334	0.15932	0.15492	0.15014	0.14497	0.13943	0.13351	0.12723	0.12062	0.1137	0.10651	0.099124	0.091595	0.084002	0.076424	0.068945	0.061652	0.054625	0.047939	0.04166	0.035841	0.03052	0.025719	0.021446	0.017694	0.014443	0.011663	0.009317	0.0073616	0.0057519	0.0044422	0.0033888	0.0025511	0.0018927	0.0013817	0.0009905	0.00069585	0.00047803	0.00032044	0.00020923	0.00013286	8.199e-05	4.9163e-05	2.867e-05	1.6294e-05	9.0518e-06	4.9336e-06	2.6477e-06	1.4024e-06	7.3317e-07	3.7735e-07	1.9021e-07	9.3281e-08	4.4183e-08	2.0075e-08	8.6958e-09	3.5723e-09	1.3855e-09	5.0541e-10	1.728e-10	5.5202e-11	1.6428e-11	4.5419e-12	1.1633e-12	2.753e-13	6.0031e-14	1.203e-14	2.2098e-15	3.7111e-16	5.683e-17	7.9159e-18	1.0004e-18	1.1443e-19	1.1818e-20	1.0994e-21	9.1907e-23	6.8896e-24	4.6207e-25	2.7669e-26	1.4762e-27	7.0034e-29	2.9489e-30	1.1001e-31	3.6295e-33	1.0573e-34	2.7157e-36	6.1405e-38	1.2207e-39	2.131e-41	3.2631e-43	4.3784e-45	5.1434e-47	5.2858e-49	4.7492e-51	3.7285e-53	2.5569e-55	1.5311e-57	8.0057e-60	3.6548e-62	1.457e-64	5.0737e-67	1.544e-69	4.108e-72	9.5633e-75	1.9496e-77	3.4839e-80	5.4635e-83	7.5283e-86	9.1281e-89	9.7544e-92	9.2023e-95	7.6787e-98	5.6786e-101	3.7299e-104	2.181e-107	1.1381e-110	5.3135e-114	2.2257e-117	8.3884e-121	2.8532e-124	1.1633e-127	1.2576e-123	4.3194e-119	1.1534e-114	2.3941e-110	3.8638e-106	4.8503e-102	4.7388e-98	3.6065e-94	2.1404e-90	9.9194e-87	3.595e-83	1.0207e-79	2.2747e-76	3.9876e-73	5.5115e-70	6.0214e-67	5.2139e-64	3.5886e-61	1.9692e-58	8.6431e-56	3.0444e-53	8.6358e-51	1.98e-48
0.00046596	0.00046065	0.0004542	0.00044737	0.00044106	0.0004362	0.00043369	0.00043431	0.00043859	0.00044679	0.00045878	0.0004741	0.00049201	0.00051157	0.00053184	0.00055196	0.00057135	0.00058977	0.00060736	0.00062455	0.00064201	0.00066043	0.00068045	0.00070247	0.00072659	0.00075266	0.00078027	0.00080891	0.00083806	0.0008673	0.00089639	0.00092525	0.00095399	0.00098282	0.001012	0.0010417	0.0010723	0.0011038	0.0011364	0.0011702	0.0012052	0.0012417	0.00128	0.0013204	0.0013635	0.00141	0.0014609	0.0015169	0.0015791	0.0016484	0.0017257	0.0018116	0.0019067	0.0020113	0.0021256	0.0022496	0.0023839	0.0025289	0.0026857	0.0028556	0.0030406	0.0032425	0.0034634	0.0037053	0.0039697	0.0042576	0.0045697	0.0049059	0.005266	0.0056495	0.0060557	0.0064841	0.0069346	0.0074076	0.0079043	0.0084265	0.0089769	0.0095588	0.010176	0.010833	0.011533	0.012279	0.013076	0.013927	0.014837	0.01581	0.016854	0.017977	0.019191	0.020507	0.02194	0.023501	0.025204	0.027061	0.02908	0.031271	0.033645	0.036212	0.038988	0.041989	0.04524	0.048762	0.052583	0.056725	0.061209	0.066049	0.071251	0.076813	0.082718	0.08894	0.095439	0.10216	0.10904	0.11601	0.12298	0.12986	0.13657	0.143	0.14909	0.15475	0.15991	0.16453	0.16855	0.17195	0.17472	0.17684	0.17832	0.17917	0.17942	0.17909	0.17821	0.17681	0.17492	0.17258	0.1698	0.16662	0.16304	0.15909	0.15476	0.15005	0.14498	0.13953	0.13372	0.12755	0.12105	0.11424	0.10717	0.099882	0.092444	0.084928	0.077411	0.069977	0.062709	0.055689	0.048993	0.042687	0.036826	0.031451	0.026587	0.022244	0.018419	0.015093	0.012239	0.0098214	0.0077984	0.0061258	0.0047586	0.0036533	0.0027694	0.0020704	0.0015241	0.0011029	0.00078291	0.00054423	0.0003698	0.00024527	0.00015864	0.00010003	6.1534e-05	3.6982e-05	2.1769e-05	1.259e-05	7.1774e-06	4.0428e-06	2.2515e-06	1.2376e-06	6.6867e-07	3.5308e-07	1.81e-07	8.9478e-08	4.2398e-08	1.9152e-08	8.2096e-09	3.3259e-09	1.2689e-09	4.5445e-10	1.5233e-10	4.7654e-11	1.3874e-11	3.7494e-12	9.3797e-13	2.1664e-13	4.6079e-14	9.0016e-15	1.611e-15	2.6347e-16	3.9275e-17	5.3235e-18	6.5451e-19	7.2817e-20	7.3136e-21	6.6164e-22	5.3794e-23	3.9223e-24	2.5593e-25	1.4914e-26	7.7465e-28	3.5798e-29	1.4691e-30	5.3454e-32	1.7216e-33	4.9002e-35	1.2309e-36	2.7254e-38	5.312e-40	9.1041e-42	1.3707e-43	1.8112e-45	2.099e-47	2.1319e-49	1.8968e-51	1.4778e-53	1.0078e-55	6.016e-58	3.1432e-60	1.4376e-62	5.7568e-65	2.0194e-67	6.2081e-70	1.6738e-72	3.961e-75	8.2351e-78	1.5059e-80	2.4249e-83	3.4434e-86	4.3186e-89	4.7916e-92	4.7118e-95	4.1146e-98	3.1975e-101	2.2162e-104	1.3733e-107	7.6276e-111	3.8074e-114	1.7128e-117	6.9649e-121	2.568e-124	1.6758e-124	5.4901e-120	1.404e-115	2.8008e-111	4.3591e-107	5.2949e-103	5.0225e-99	3.7233e-95	2.1594e-91	9.8107e-88	3.4966e-84	9.7925e-81	2.1591e-77	3.7555e-74	5.1651e-71	5.6307e-68	4.8781e-65	3.3679e-62	1.8586e-59	8.2235e-57	2.9269e-54	8.4087e-52	1.9567e-49
