6.1601e-11	1.4113e-11	2.8942e-12	5.2847e-13	8.5468e-14	1.2178e-14	1.5205e-15	1.6548e-16	1.5614e-17	1.2704e-18	8.8649e-20	5.2773e-21	2.6658e-22	1.1366e-23	4.0691e-25	1.2168e-26	3.024e-28	6.2144e-30	1.051e-31	1.4562e-33	1.6468e-35	1.5162e-37	1.1371e-39	6.9992e-42	3.6196e-44	1.6568e-46	7.28e-49	3.2589e-51	1.4494e-53	5.929e-56	2.0963e-58	6.2024e-61	1.5138e-63	3.0276e-66	4.9438e-69	6.5735e-72	7.1018e-75	6.2221e-78	4.4131e-81	2.5299e-84	1.1706e-87	4.3666e-91	1.3118e-94	3.1708e-98	6.1633e-102	9.6294e-106	1.209e-109	1.2197e-113	9.889e-118	6.4464e-122	3.3806e-126	1.4273e-130	4.8571e-135	1.3338e-139	2.96e-144	5.318e-149	7.7497e-154	9.1801e-159	8.8608e-164	6.9871e-169	4.514e-174	2.3967e-179	1.0493e-184	3.8011e-190	1.1437e-195	2.87e-201	6.0314e-207	1.0662e-212	1.593e-218	2.0213e-224	2.1895e-230	2.0354e-236	6.4863e-235	9.611e-228	1.1268e-220	1.0388e-213	7.4874e-207	4.1958e-200	1.8186e-193	6.0667e-187	1.5506e-180	3.0236e-174	4.4805e-168	5.0276e-162	4.2578e-156	2.7136e-150	1.298e-144	4.6497e-139	1.2448e-133	2.4864e-128	3.7009e-123	4.1004e-118	3.3794e-113	2.0709e-108	9.4357e-104	3.1971e-99	8.0598e-95	1.513e-90	2.1172e-86	2.2115e-82	1.7272e-78	1.0105e-74	4.4389e-71	1.4674e-67	3.6608e-64	6.9119e-61	9.9085e-58	1.0821e-54	9.0363e-52	5.7916e-49	2.8606e-46	1.0935e-43	3.2493e-41	7.5398e-39	1.3728e-36	1.971e-34	2.2428e-32	2.0332e-30	1.4764e-28	8.6341e-27	4.0895e-25	1.5777e-23	4.9869e-22	1.299e-20	2.8056e-19	5.0542e-18	7.6419e-17	9.758e-16	1.0589e-14	9.8289e-14	7.8537e-13	5.4379e-12	3.2846e-11	1.7427e-10	8.1788e-10	3.4207e-09	1.2849e-08	4.3702e-08	1.358e-07	3.8922e-07	1.0394e-06	2.6136e-06	6.251e-06	1.4351e-05	3.1845e-05	6.8607e-05	0.00014374	0.00029279	0.00057902	0.0011098	0.0020586	0.0036928	0.0064041	0.01074	0.017428	0.027391	0.041742	0.061755	0.08881	0.12431	0.16961	0.22584	0.29389	0.37426	0.467	0.57173	0.6876	0.81334	0.94738	1.0879	1.2329	1.3804	1.5284	1.675	1.8185	1.9575	2.0905	2.2165	2.3346	2.4441	2.5442	2.6346	2.7146	2.7839	2.8419	2.8881	2.9219	2.9427	2.9498	2.9426	2.9206	2.8834	2.8309	2.7631	2.6806	2.5843	2.4755	2.356	2.2278	2.0934	1.955	1.8153	1.6765	1.5407	1.4099	1.2853	1.1682	1.0591	0.9586	0.86663	0.78308	0.70764	0.63985	0.57918	0.52503	0.47681	0.43391	0.39573	0.36172	0.33138	0.30424	0.2799	0.25798	0.23818	0.22024	0.20391	0.18902	0.17541	0.16296	0.15154	0.14107	0.13147	0.12266	0.11457	0.10713	0.10029	0.094008	0.088233	0.082934	0.078082	0.073649	0.069611	0.065941	0.062613	0.059599	0.056871	0.054397	0.05215	0.050099	0.048217	0.046478	0.044859	0.043338	0.041896	0.040519	0.039193	0.037909	0.036661	0.035443	0.034255	0.033094	0.031964	0.030865	0.029802	0.028776	0.027792	0.026853	0.025961	0.025118	0.024324	0.023578	0.022878	0.022219	0.021596	0.021001	0.020429	0.019873	0.019328	0.018791	0.01826	0.017737	0.017221	0.016716	0.016222	0.015742	0.015277	0.014825	0.014386	0.013961	0.013547	0.013144	0.01275	0.012363	0.01198	0.011598
1.4393e-10	3.4345e-11	7.3439e-12	1.3998e-12	2.366e-13	3.5273e-14	4.6135e-15	5.2654e-16	5.2158e-17	4.4601e-18	3.2747e-19	2.0534e-20	1.0938e-21	4.9232e-23	1.8628e-24	5.8946e-26	1.5523e-27	3.3863e-29	6.0945e-31	9.0234e-33	1.0987e-34	1.106e-36	9.3643e-39	6.9331e-41	4.789e-43	3.2813e-45	2.2354e-47	1.43e-49	8.0743e-52	3.8718e-54	1.5472e-56	5.1059e-59	1.3847e-61	3.0762e-64	5.5832e-67	8.2595e-70	9.9385e-73	9.7081e-76	7.6848e-79	4.9217e-82	2.5466e-85	1.0633e-88	3.5783e-92	9.6983e-96	2.1155e-99	3.712e-103	5.238e-107	5.9437e-111	5.4241e-115	3.9824e-119	2.3536e-123	1.1206e-127	4.3025e-132	1.3337e-136	3.343e-141	6.7863e-146	1.1179e-150	1.4974e-155	1.6349e-160	1.4588e-165	1.0667e-170	6.4114e-176	3.1782e-181	1.3038e-186	4.4433e-192	1.2629e-197	3.0061e-203	6.0193e-209	1.0186e-214	1.4638e-220	1.7955e-226	1.8898e-232	1.2259e-234	1.7891e-227	2.0666e-220	1.8774e-213	1.3335e-206	7.3657e-200	3.1472e-193	1.0352e-186	2.6091e-180	5.0179e-174	7.3352e-168	8.1209e-162	6.787e-156	4.2692e-150	2.016e-144	7.1303e-139	1.8851e-133	3.7195e-128	5.4695e-123	5.9881e-118	4.8777e-113	2.9549e-108	1.3312e-103	4.4606e-99	1.1123e-94	2.0658e-90	2.8606e-86	2.9576e-82	2.2867e-78	1.3248e-74	5.7633e-71	1.8874e-67	4.6652e-64	8.7292e-61	1.2404e-57	1.3431e-54	1.1121e-51	7.0698e-49	3.4641e-46	1.3139e-43	3.8747e-41	8.9249e-39	1.6134e-36	2.3002e-34	2.5996e-32	2.3411e-30	1.689e-28	9.8158e-27	4.6209e-25	1.7722e-23	5.5691e-22	1.4425e-20	3.0982e-19	5.5511e-18	8.3482e-17	1.0604e-15	1.1447e-14	1.0569e-13	8.4008e-13	5.7858e-12	3.4759e-11	1.8339e-10	8.558e-10	3.558e-09	1.3281e-08	4.4879e-08	1.3849e-07	3.9405e-07	1.0443e-06	2.6056e-06	6.1843e-06	1.4096e-05	3.1088e-05	6.6647e-05	0.00013916	0.00028291	0.0005591	0.0010719	0.0019905	0.0035759	0.0062121	0.010437	0.016968	0.026717	0.040786	0.060441	0.087056	0.12204	0.16673	0.2223	0.28963	0.36925	0.46124	0.56522	0.68039	0.8055	0.93899	1.0791	1.2237	1.371	1.5189	1.6656	1.8092	1.9484	2.0817	2.2081	2.3266	2.4365	2.5371	2.6279	2.7084	2.7782	2.8366	2.8833	2.9176	2.9389	2.9466	2.94	2.9188	2.8823	2.8306	2.7638	2.6823	2.587	2.4792	2.3607	2.2335	2.0999	1.9623	1.8232	1.6849	1.5494	1.4188	1.2943	1.1771	1.068	0.96722	0.87496	0.79108	0.71525	0.64706	0.58596	0.5314	0.48277	0.43947	0.40092	0.36657	0.33593	0.30853	0.28395	0.26184	0.24188	0.22378	0.20732	0.1923	0.17857	0.16598	0.15443	0.14383	0.1341	0.12515	0.11692	0.10935	0.10238	0.095971	0.090071	0.08465	0.079678	0.075129	0.070977	0.067199	0.063769	0.060659	0.057841	0.055285	0.052963	0.050845	0.048903	0.047111	0.045445	0.043882	0.042402	0.04099	0.039632	0.038317	0.037039	0.035793	0.034577	0.033392	0.032237	0.031117	0.030032	0.028987	0.027984	0.027025	0.026114	0.025253	0.024442	0.02368	0.022966	0.022296	0.021664	0.021063	0.020488	0.019932	0.019388	0.018854	0.018328	0.01781	0.017301	0.016802	0.016316	0.015843	0.015383	0.014936	0.014502	0.014077	0.013661	0.013253	0.01285	0.012452	0.012056	0.01166
3.1577e-10	7.8359e-11	1.7445e-11	3.4661e-12	6.1139e-13	9.5231e-14	1.3028e-14	1.5572e-15	1.6172e-16	1.4516e-17	1.12e-18	7.3891e-20	4.1464e-21	1.9688e-22	7.8701e-24	2.6361e-25	7.3675e-27	1.7127e-28	3.3081e-30	5.3278e-32	7.2449e-34	8.5627e-36	9.2476e-38	9.6513e-40	9.9303e-42	9.7287e-44	8.5858e-46	6.5438e-48	4.2069e-50	2.2541e-52	1.0002e-54	3.6601e-57	1.1012e-59	2.7166e-62	5.4817e-65	9.0265e-68	1.2104e-70	1.3191e-73	1.1663e-76	8.3521e-80	4.8374e-83	2.2631e-86	8.5426e-90	2.5995e-93	6.3721e-97	1.2576e-100	1.9979e-104	2.5543e-108	2.6286e-112	2.178e-116	1.4537e-120	7.8222e-125	3.3965e-129	1.1915e-133	3.3816e-138	7.7775e-143	1.4523e-147	2.2063e-152	2.7332e-157	2.7682e-162	2.2985e-167	1.5693e-172	8.8391e-178	4.1214e-183	1.5967e-188	5.1601e-194	1.3968e-199	3.1809e-205	6.1224e-211	1.0007e-216	1.3962e-222	1.6713e-228	4.1169e-234	3.4187e-227	3.8696e-220	3.4458e-213	2.3999e-206	1.3002e-199	5.4504e-193	1.7595e-186	4.3539e-180	8.2237e-174	1.181e-167	1.285e-161	1.0558e-155	6.5313e-150	3.0343e-144	1.0562e-138	2.7491e-133	5.3419e-128	7.7391e-123	8.3508e-118	6.7065e-113	4.0071e-108	1.7811e-103	5.8909e-99	1.4504e-94	2.6608e-90	3.6407e-86	3.7205e-82	2.8445e-78	1.63e-74	7.017e-71	2.2746e-67	5.5673e-64	1.0319e-60	1.4529e-57	1.5593e-54	1.2803e-51	8.0728e-49	3.9247e-46	1.4775e-43	4.3257e-41	9.8952e-39	1.777e-36	2.5175e-34	2.8281e-32	2.5323e-30	1.817e-28	1.0505e-26	4.9206e-25	1.8782e-23	5.8756e-22	1.5154e-20	3.2413e-19	5.7847e-18	8.6666e-17	1.0968e-15	1.1798e-14	1.0856e-13	8.5992e-13	5.9025e-12	3.5341e-11	1.8584e-10	8.6426e-10	3.5808e-09	1.3319e-08	4.4841e-08	1.3785e-07	3.9068e-07	1.0311e-06	2.5616e-06	6.0539e-06	1.3742e-05	3.0195e-05	6.4541e-05	0.00013448	0.00027307	0.00053947	0.0010347	0.0019232	0.0034594	0.0060187	0.010128	0.016493	0.02601	0.039767	0.059017	0.085122	0.11948	0.16344	0.21816	0.28456	0.36315	0.45407	0.55695	0.67102	0.79507	0.92756	1.0667	1.2106	1.3572	1.5045	1.6508	1.7941	1.9331	2.0664	2.1928	2.3114	2.4215	2.5223	2.6134	2.6942	2.7642	2.823	2.87	2.9048	2.9266	2.9348	2.929	2.9085	2.8731	2.8225	2.7568	2.6766	2.5828	2.4765	2.3595	2.2338	2.1016	1.9652	1.8273	1.6899	1.5553	1.4253	1.3013	1.1844	1.0755	0.97473	0.88241	0.79837	0.72232	0.65384	0.59243	0.53753	0.48855	0.4449	0.40602	0.37138	0.34046	0.31281	0.28802	0.26573	0.2456	0.22736	0.21077	0.19562	0.18175	0.16904	0.15736	0.14662	0.13674	0.12766	0.11929	0.11159	0.10449	0.097955	0.091933	0.086394	0.081307	0.076647	0.072388	0.068506	0.064976	0.061771	0.058863	0.056224	0.053824	0.051635	0.049629	0.047779	0.046061	0.044451	0.042929	0.041477	0.040082	0.038733	0.037423	0.036147	0.034904	0.033693	0.032516	0.031375	0.030271	0.029208	0.028187	0.027211	0.026282	0.025402	0.024573	0.023795	0.023066	0.022383	0.021741	0.021133	0.020554	0.019996	0.019453	0.018922	0.0184	0.017886	0.017382	0.016889	0.016408	0.015939	0.015484	0.01504	0.014605	0.014179	0.01376	0.013345	0.012933	0.012523	0.012114	0.011704
6.5255e-10	1.6814e-10	3.8914e-11	8.0472e-12	1.4791e-12	2.4036e-13	3.4348e-14	4.2932e-15	4.6686e-16	4.3933e-17	3.5586e-18	2.4683e-19	1.4586e-20	7.3079e-22	3.091e-23	1.1e-24	3.2882e-26	8.2742e-28	1.7685e-29	3.2803e-31	5.484e-33	8.6638e-35	1.3307e-36	1.9577e-38	2.6404e-40	3.1303e-42	3.1741e-44	2.7112e-46	1.9347e-48	1.1474e-50	5.6352e-53	2.2845e-55	7.6235e-58	2.0887e-60	4.6869e-63	8.5937e-66	1.2848e-68	1.563e-71	1.5446e-74	1.2377e-77	8.0311e-81	4.214e-84	1.7861e-87	6.109e-91	1.685e-94	3.7459e-98	6.7093e-102	9.6807e-106	1.1253e-109	1.0542e-113	7.9619e-118	4.8519e-122	2.3878e-126	9.501e-131	3.0607e-135	7.9958e-140	1.6969e-144	2.9318e-149	4.133e-154	4.7658e-159	4.5076e-164	3.5073e-169	2.2523e-174	1.1978e-179	5.2942e-185	1.9526e-190	6.0337e-196	1.5689e-201	3.4485e-207	6.4379e-213	1.0259e-218	1.4029e-224	1.6556e-230	6.7292e-227	7.3962e-220	6.4218e-213	4.3634e-206	2.3072e-199	9.4448e-193	2.9787e-186	7.2045e-180	1.3308e-173	1.8699e-167	1.9916e-161	1.6027e-155	9.7156e-150	4.4252e-144	1.511e-138	3.86e-133	7.3656e-128	1.0484e-122	1.1121e-117	8.784e-113	5.1648e-108	2.2603e-103	7.3642e-99	1.7871e-94	3.2329e-90	4.3644e-86	4.4028e-82	3.3245e-78	1.8825e-74	8.0118e-71	2.5689e-67	6.2221e-64	1.1418e-60	1.5925e-57	1.6938e-54	1.3788e-51	8.6238e-49	4.1605e-46	1.5549e-43	4.5215e-41	1.0277e-38	1.8345e-36	2.5845e-34	2.8881e-32	2.5735e-30	1.8382e-28	1.0583e-26	4.9383e-25	1.8783e-23	5.857e-22	1.5061e-20	3.2128e-19	5.7197e-18	8.5502e-17	1.0798e-15	1.1594e-14	1.065e-13	8.4228e-13	5.773e-12	3.4518e-11	1.8128e-10	8.4209e-10	3.4852e-09	1.295e-08	4.3561e-08	1.3381e-07	3.7891e-07	9.9926e-07	2.4804e-06	5.8566e-06	1.3282e-05	2.9154e-05	6.2261e-05	0.00012965	0.00026321	0.00052008	0.0009981	0.0018568	0.0033437	0.0058249	0.0098154	0.016005	0.025275	0.038695	0.057496	0.083028	0.11668	0.15977	0.21348	0.27872	0.35605	0.44558	0.54702	0.65961	0.78217	0.91322	1.051	1.1936	1.3391	1.4854	1.6308	1.7734	1.9118	2.0447	2.1708	2.2892	2.3991	2.5	2.5911	2.6719	2.7421	2.8011	2.8484	2.8835	2.9058	2.9146	2.9096	2.89	2.8557	2.8064	2.7423	2.6638	2.5717	2.4674	2.3523	2.2286	2.0983	1.9638	1.8274	1.6916	1.5583	1.4293	1.3062	1.19	1.0815	0.98108	0.88891	0.8049	0.72877	0.66015	0.59853	0.54337	0.49411	0.45018	0.41102	0.37611	0.34494	0.31707	0.29209	0.26962	0.24934	0.23096	0.21424	0.19896	0.18497	0.17211	0.1603	0.14942	0.1394	0.13017	0.12167	0.11383	0.1066	0.099942	0.093803	0.088151	0.082956	0.07819	0.07383	0.06985	0.066224	0.062927	0.05993	0.057206	0.054726	0.052463	0.050389	0.048477	0.046701	0.045039	0.043469	0.041974	0.040539	0.039152	0.037808	0.036501	0.03523	0.033995	0.032797	0.031637	0.030517	0.029438	0.028401	0.027409	0.026464	0.025567	0.024721	0.023925	0.02318	0.022483	0.021829	0.021212	0.020627	0.020065	0.019522	0.018992	0.018473	0.017963	0.017463	0.016973	0.016496	0.01603	0.015576	0.015132	0.014696	0.014266	0.013841	0.013418	0.012997	0.012576	0.012154	0.011731
1.2742e-09	3.4038e-10	8.1769e-11	1.7573e-11	3.3609e-12	5.6898e-13	8.4815e-14	1.1073e-14	1.2595e-15	1.2417e-16	1.0555e-17	7.6998e-19	4.7989e-20	2.5463e-21	1.1479e-22	4.4009e-24	1.4441e-25	4.1195e-27	1.051e-28	2.4906e-30	5.6492e-32	1.2262e-33	2.4716e-35	4.4542e-37	6.9699e-39	9.2996e-41	1.047e-42	9.8817e-45	7.7846e-47	5.1002e-49	2.7702e-51	1.2438e-53	4.6033e-56	1.4008e-58	3.496e-61	7.1393e-64	1.1904e-66	1.6173e-69	1.7872e-72	1.6036e-75	1.1665e-78	6.8708e-82	3.2728e-85	1.2596e-88	3.9137e-92	9.8121e-96	1.9842e-99	3.2357e-103	4.2556e-107	4.5148e-111	3.8656e-115	2.6729e-119	1.494e-123	6.7572e-128	2.4765e-132	7.366e-137	1.7813e-141	3.5093e-146	5.6448e-151	7.4322e-156	8.0312e-161	7.1436e-166	5.2469e-171	3.193e-176	1.6158e-181	6.8254e-187	2.4165e-192	7.2015e-198	1.8147e-203	3.8849e-209	7.1007e-215	1.1138e-220	1.5081e-226	1.4341e-224	3.9321e-219	1.254e-212	8.0186e-206	4.1154e-199	1.6373e-192	5.0217e-186	1.182e-179	2.126e-173	2.911e-167	3.0233e-161	2.3739e-155	1.4051e-149	6.2534e-144	2.0877e-138	5.2184e-133	9.7497e-128	1.3597e-122	1.4141e-117	1.096e-112	6.3269e-108	2.7205e-103	8.7144e-99	2.0806e-94	3.7056e-90	4.9284e-86	4.9013e-82	3.6509e-78	2.0408e-74	8.5789e-71	2.7188e-67	6.5128e-64	1.1827e-60	1.6334e-57	1.7214e-54	1.3892e-51	8.6187e-49	4.127e-46	1.5316e-43	4.4252e-41	9.9987e-39	1.7752e-36	2.4886e-34	2.7686e-32	2.4572e-30	1.7489e-28	1.0037e-26	4.6709e-25	1.7725e-23	5.5161e-22	1.4162e-20	3.0171e-19	5.3659e-18	8.0157e-17	1.0119e-15	1.0862e-14	9.9778e-14	7.8931e-13	5.4123e-12	3.2381e-11	1.702e-10	7.9141e-10	3.2795e-09	1.2205e-08	4.1126e-08	1.2659e-07	3.593e-07	9.4991e-07	2.3639e-06	5.5953e-06	1.2717e-05	2.7965e-05	5.9806e-05	0.00012467	0.00025332	0.00050095	0.00096217	0.0017915	0.0032295	0.0056318	0.0095005	0.015509	0.024518	0.037576	0.055891	0.080789	0.11364	0.15575	0.2083	0.2722	0.348	0.43588	0.53554	0.64628	0.76696	0.89614	1.0321	1.173	1.3168	1.4617	1.6058	1.7473	1.8848	2.0168	2.1423	2.2602	2.3697	2.4702	2.5612	2.6419	2.7121	2.7712	2.8187	2.854	2.8767	2.8862	2.8819	2.8635	2.8304	2.7826	2.7202	2.6437	2.5539	2.4519	2.3393	2.2179	2.0901	1.9579	1.8237	1.6898	1.5583	1.4308	1.309	1.1938	1.086	0.98616	0.89437	0.81058	0.73455	0.6659	0.60418	0.54887	0.49941	0.45526	0.41587	0.38073	0.34935	0.32129	0.29613	0.27351	0.25309	0.23457	0.21771	0.20231	0.18818	0.17519	0.16323	0.15221	0.14205	0.13267	0.12403	0.11606	0.1087	0.10192	0.095665	0.089906	0.084609	0.079746	0.075291	0.071219	0.067503	0.064117	0.061033	0.058225	0.055665	0.053325	0.051179	0.0492	0.047362	0.045642	0.04402	0.042477	0.040997	0.039571	0.038191	0.036853	0.035555	0.034297	0.033079	0.031902	0.030767	0.029674	0.028624	0.027619	0.026658	0.025746	0.024883	0.02407	0.023308	0.022595	0.021927	0.0213	0.020706	0.020138	0.019592	0.019062	0.018544	0.018036	0.017539	0.017052	0.016577	0.016112	0.015658	0.015212	0.014772	0.014338	0.013906	0.013475	0.013044	0.012612	0.012178	0.011742
2.3586e-09	6.5222e-10	1.624e-10	3.622e-11	7.1982e-12	1.2681e-12	1.9698e-13	2.6843e-14	3.1929e-15	3.299e-16	2.9478e-17	2.2696e-18	1.5021e-19	8.5469e-21	4.1986e-22	1.8009e-23	6.8859e-25	2.417e-26	8.0042e-28	2.5225e-29	7.438e-31	1.9901e-32	4.6947e-34	9.5701e-36	1.6645e-37	2.4506e-39	3.0377e-41	3.1573e-43	2.7418e-45	1.9829e-47	1.1907e-49	5.9193e-52	2.4294e-54	8.2104e-57	2.2791e-59	5.1845e-62	9.6432e-65	1.4636e-67	1.8093e-70	1.8187e-73	1.4841e-76	9.8189e-80	5.2607e-83	2.2802e-86	7.9891e-90	2.2614e-93	5.1692e-97	9.5402e-101	1.4216e-104	1.7108e-108	1.6633e-112	1.3074e-116	8.3147e-121	4.2835e-125	1.7898e-129	6.0749e-134	1.6779e-138	3.7786e-143	6.9536e-148	1.0482e-152	1.2978e-157	1.3235e-162	1.1153e-167	7.7914e-173	4.5288e-178	2.1985e-183	8.9494e-189	3.0679e-194	8.8959e-200	2.1922e-205	4.6138e-211	8.3354e-217	1.3039e-222	7.1982e-220	1.0872e-214	1.4722e-209	1.919e-204	9.2676e-199	2.8567e-192	8.4308e-186	1.9223e-179	3.3529e-173	4.4553e-167	4.4943e-161	3.4305e-155	1.9756e-149	8.5619e-144	2.7859e-138	6.7924e-133	1.2389e-127	1.6883e-122	1.7172e-117	1.3026e-112	7.3664e-108	3.1055e-103	9.7616e-99	2.2889e-94	4.007e-90	5.2424e-86	5.133e-82	3.7674e-78	2.0766e-74	8.6152e-71	2.6966e-67	6.3847e-64	1.1469e-60	1.5679e-57	1.6368e-54	1.3095e-51	8.0587e-49	3.8304e-46	1.4121e-43	4.0551e-41	9.1127e-39	1.6101e-36	2.2475e-34	2.4913e-32	2.2041e-30	1.5647e-28	8.9613e-27	4.1635e-25	1.5781e-23	4.9078e-22	1.2596e-20	2.6838e-19	4.7755e-18	7.1396e-17	9.0233e-16	9.7002e-15	8.926e-14	7.0754e-13	4.8627e-12	2.9169e-11	1.5376e-10	7.1727e-10	2.983e-09	1.1146e-08	3.7727e-08	1.167e-07	3.3304e-07	8.8559e-07	2.217e-06	5.2781e-06	1.206e-05	2.6644e-05	5.7195e-05	0.00011957	0.00024344	0.00048213	0.00092707	0.0017278	0.0031172	0.0054405	0.0091853	0.015007	0.023744	0.036418	0.054212	0.078424	0.1104	0.15143	0.20267	0.26504	0.3391	0.42505	0.52264	0.63118	0.7496	0.87651	1.0102	1.149	1.2908	1.4338	1.5761	1.7161	1.8522	1.9831	2.1075	2.2246	2.3335	2.4335	2.524	2.6045	2.6745	2.7335	2.781	2.8166	2.8397	2.8498	2.8464	2.8291	2.7974	2.7513	2.691	2.6168	2.5294	2.4301	2.3204	2.2019	2.0769	1.9476	1.8161	1.6846	1.5552	1.4297	1.3095	1.1956	1.0889	0.98991	0.89872	0.81534	0.73956	0.67104	0.60934	0.55397	0.5044	0.4601	0.42054	0.38522	0.35367	0.32544	0.30013	0.27736	0.2568	0.23816	0.22117	0.20564	0.19137	0.17825	0.16614	0.15497	0.14466	0.13514	0.12636	0.11825	0.11077	0.10387	0.097505	0.091645	0.086253	0.081301	0.07676	0.072602	0.068802	0.065332	0.062165	0.059274	0.056633	0.054215	0.051994	0.049944	0.04804	0.046258	0.044579	0.042983	0.041456	0.039988	0.038571	0.0372	0.035875	0.034595	0.033359	0.032167	0.03102	0.029916	0.028854	0.027837	0.026864	0.025936	0.025057	0.024228	0.023449	0.022719	0.022035	0.021393	0.020788	0.020213	0.019662	0.019128	0.01861	0.018103	0.017608	0.017123	0.016649	0.016184	0.015728	0.015279	0.014835	0.014394	0.013955	0.013515	0.013075	0.012633	0.012189	0.011743
4.1537e-09	1.1874e-09	3.0605e-10	7.0757e-11	1.4599e-11	2.6745e-12	4.3287e-13	6.1607e-14	7.676e-15	8.3415e-16	7.8854e-17	6.4802e-18	4.6418e-19	2.9209e-20	1.6391e-21	8.3842e-23	4.0004e-24	1.8028e-25	7.6216e-27	2.9573e-28	1.0266e-29	3.1226e-31	8.2026e-33	1.8434e-34	3.5212e-36	5.69e-38	7.7471e-40	8.8559e-42	8.4712e-44	6.7593e-46	4.4853e-48	2.4681e-50	1.123e-52	4.2144e-55	1.3011e-57	3.2969e-60	6.8412e-63	1.1602e-65	1.6049e-68	1.8078e-71	1.6557e-74	1.2312e-77	7.4242e-81	3.6269e-84	1.4342e-87	4.588e-91	1.1868e-94	2.4819e-98	4.1957e-102	5.7353e-106	6.3416e-110	5.6754e-114	4.1145e-118	2.4188e-122	1.1546e-126	4.4814e-131	1.4168e-135	3.6559e-140	7.7157e-145	1.3351e-149	1.8989e-154	2.2266e-159	2.1589e-164	1.7366e-169	1.1631e-174	6.51e-180	3.0572e-185	1.2097e-190	4.0509e-196	1.1534e-201	2.8057e-207	5.8608e-213	1.0798e-218	3.3118e-215	4.2958e-210	4.9886e-205	5.1617e-200	4.738e-195	3.8872e-190	4.1428e-185	3.2694e-179	5.2283e-173	6.7037e-167	6.5424e-161	4.8366e-155	2.7004e-149	1.1357e-143	3.5899e-138	8.5118e-133	1.5113e-127	2.0069e-122	1.991e-117	1.4747e-112	8.1516e-108	3.3623e-103	1.0351e-98	2.3794e-94	4.0876e-90	5.2531e-86	5.0572e-82	3.653e-78	1.9836e-74	8.1139e-71	2.5064e-67	5.8621e-64	1.0411e-60	1.4084e-57	1.4561e-54	1.1546e-51	7.0492e-49	3.3265e-46	1.2184e-43	3.479e-41	7.7792e-39	1.3686e-36	1.9036e-34	2.1039e-32	1.8572e-30	1.3162e-28	7.5301e-27	3.4967e-25	1.3254e-23	4.1241e-22	1.0596e-20	2.2609e-19	4.0308e-18	6.0403e-17	7.6547e-16	8.2546e-15	7.6221e-14	6.065e-13	4.1858e-12	2.5224e-11	1.3363e-10	6.268e-10	2.6225e-09	9.8639e-09	3.3631e-08	1.0486e-07	3.0184e-07	8.0996e-07	2.0467e-06	4.9175e-06	1.1332e-05	2.5222e-05	5.4468e-05	0.00011438	0.00023364	0.00046372	0.00089295	0.0016658	0.0030074	0.005252	0.0088714	0.014501	0.022956	0.035228	0.052469	0.075946	0.10697	0.14682	0.19663	0.2573	0.32943	0.41321	0.50843	0.61446	0.73028	0.85453	0.98562	1.1218	1.2611	1.4018	1.542	1.6801	1.8144	1.9438	2.0669	2.1829	2.2908	2.39	2.4799	2.5599	2.6295	2.6883	2.7359	2.7716	2.7951	2.8059	2.8034	2.7872	2.7571	2.7129	2.6548	2.5831	2.4986	2.4023	2.2958	2.1807	2.059	1.9329	1.8044	1.6759	1.5491	1.4259	1.3076	1.1955	1.0902	0.99221	0.90186	0.8191	0.74374	0.67549	0.61394	0.55862	0.50902	0.46464	0.42497	0.38952	0.35783	0.32947	0.30403	0.28113	0.26045	0.24168	0.22458	0.20891	0.19452	0.18125	0.169	0.15768	0.14722	0.13756	0.12863	0.12039	0.11279	0.10577	0.099308	0.093354	0.087876	0.082843	0.078223	0.073988	0.07011	0.066561	0.063315	0.060344	0.057623	0.055127	0.052829	0.050705	0.048731	0.046884	0.045144	0.043492	0.041915	0.040402	0.038946	0.037543	0.036191	0.034889	0.033636	0.032431	0.031272	0.030158	0.029087	0.028059	0.027075	0.026134	0.02524	0.024394	0.023597	0.022849	0.022148	0.021491	0.020872	0.020286	0.019727	0.019189	0.018668	0.018162	0.017667	0.017183	0.016709	0.016244	0.015786	0.015334	0.014885	0.014438	0.013991	0.013544	0.013095	0.012645	0.012192	0.011736
6.9904e-09	2.0636e-09	5.5012e-10	1.3177e-10	2.8225e-11	5.3808e-12	9.0904e-13	1.3558e-13	1.7802e-14	2.0552e-15	2.0889e-16	1.879e-17	1.5118e-18	1.1053e-19	7.4789e-21	4.7445e-22	2.8221e-23	1.5526e-24	7.7392e-26	3.427e-27	1.3274e-28	4.4494e-30	1.2808e-31	3.1489e-33	6.5818e-35	1.1651e-36	1.7403e-38	2.1861e-40	2.3018e-42	2.0252e-44	1.4843e-46	9.0365e-49	4.5569e-51	1.8984e-53	6.5171e-56	1.8393e-58	4.2578e-61	8.0684e-64	1.2492e-66	1.5773e-69	1.6218e-72	1.356e-75	9.2083e-79	5.0734e-82	2.266e-85	8.1993e-89	2.4024e-92	5.6987e-96	1.0943e-99	1.7013e-103	2.1423e-107	2.1863e-111	1.8097e-115	1.2161e-119	6.6437e-124	2.9546e-128	1.0715e-132	3.1749e-137	7.7023e-142	1.5335e-146	2.5122e-151	3.3958e-156	3.7989e-161	3.5289e-166	2.7314e-171	1.7681e-176	9.6099e-182	4.4037e-187	1.7089e-192	5.6414e-198	1.5919e-203	3.8593e-209	9.1969e-215	1.3782e-210	1.5302e-205	1.5214e-200	1.348e-195	1.0596e-190	7.3572e-186	4.4931e-181	2.4084e-176	1.2021e-171	1.4466e-166	9.4852e-161	6.6569e-155	3.5881e-149	1.4595e-143	4.4673e-138	1.0269e-132	1.7698e-127	2.2838e-122	2.2044e-117	1.5904e-112	8.5733e-108	3.4526e-103	1.039e-98	2.3373e-94	3.9337e-90	4.9585e-86	4.6873e-82	3.3282e-78	1.7784e-74	7.1667e-71	2.1832e-67	5.0407e-64	8.8465e-61	1.1838e-57	1.2118e-54	9.524e-52	5.768e-49	2.7026e-46	9.8377e-44	2.794e-41	6.2194e-39	1.0901e-36	1.5119e-34	1.6673e-32	1.4696e-30	1.0408e-28	5.9538e-27	2.7663e-25	1.0498e-23	3.2722e-22	8.4265e-21	1.8032e-19	3.2256e-18	4.8522e-17	6.1756e-16	6.6913e-15	6.2108e-14	4.97e-13	3.4512e-12	2.0936e-11	1.1171e-10	5.2812e-10	2.2286e-09	8.4612e-09	2.9145e-08	9.1892e-08	2.6768e-07	7.2739e-07	1.8617e-06	4.5293e-06	1.0559e-05	2.3738e-05	5.1682e-05	0.0001092	0.00022401	0.00044586	0.00086	0.0016059	0.0029007	0.005067	0.0085605	0.013995	0.022159	0.034013	0.050674	0.073373	0.10339	0.14197	0.19022	0.24906	0.31906	0.40046	0.49306	0.59628	0.70917	0.83042	0.95849	1.0917	1.2282	1.3661	1.5038	1.6396	1.7719	1.8994	2.0209	2.1354	2.2421	2.3403	2.4293	2.5086	2.5777	2.6363	2.6837	2.7195	2.7434	2.7547	2.7532	2.7383	2.7098	2.6677	2.6119	2.543	2.4616	2.3687	2.2657	2.1543	2.0363	1.9138	1.7889	1.6636	1.5399	1.4193	1.3034	1.1932	1.0896	0.99301	0.90372	0.82177	0.74702	0.67919	0.61791	0.56274	0.51321	0.46883	0.42912	0.39359	0.36181	0.33334	0.30779	0.28478	0.26399	0.24511	0.22788	0.21209	0.19757	0.18417	0.17177	0.16031	0.14971	0.1399	0.13083	0.12246	0.11474	0.10762	0.10106	0.09502	0.089464	0.084357	0.079667	0.075363	0.071414	0.067793	0.064472	0.061424	0.058626	0.056052	0.053677	0.051479	0.049433	0.047518	0.045713	0.044003	0.042373	0.040813	0.039317	0.037881	0.036502	0.035178	0.033909	0.03269	0.031521	0.030398	0.029319	0.028282	0.027287	0.026334	0.025425	0.024563	0.023748	0.022982	0.022263	0.021588	0.020954	0.020356	0.019786	0.019242	0.018717	0.018209	0.017715	0.017232	0.016759	0.016293	0.015834	0.015378	0.014925	0.014473	0.014021	0.013567	0.013111	0.012653	0.012193	0.011731
1.1305e-08	3.445e-09	9.4994e-10	2.3594e-10	5.2558e-11	1.0461e-11	1.8549e-12	2.9249e-13	4.1027e-14	5.1355e-15	5.7772e-16	5.9066e-17	5.5642e-18	4.8859e-19	4.0141e-20	3.0641e-21	2.141e-22	1.346e-23	7.4989e-25	3.6591e-26	1.5503e-27	5.6672e-29	1.7783e-30	4.7689e-32	1.0888e-33	2.1088e-35	3.4525e-37	4.7618e-39	5.5149e-41	5.3465e-43	4.3256e-45	2.912e-47	1.6267e-49	7.5202e-52	2.8698e-54	9.0189e-57	2.3289e-59	4.931e-62	8.5445e-65	1.2096e-67	1.3966e-70	1.3134e-73	1.0049e-76	6.2472e-80	3.1535e-83	1.2916e-86	4.2902e-90	1.1554e-93	2.5227e-97	4.466e-101	6.4128e-105	7.473e-109	7.0728e-113	5.4421e-117	3.4083e-121	1.7399e-125	7.2521e-130	2.4725e-134	6.9098e-139	1.5866e-143	3.0007e-148	4.6875e-153	6.0665e-158	6.5252e-163	5.8534e-168	4.3951e-173	2.7732e-178	1.4764e-183	6.6606e-189	2.558e-194	8.4028e-200	2.3726e-205	1.0697e-210	5.1674e-206	4.8961e-201	4.155e-196	3.1433e-191	2.1104e-186	1.252e-181	6.5362e-177	2.9906e-172	1.1947e-167	4.1533e-163	1.2639e-158	4.1488e-154	5.364e-149	1.831e-143	5.3705e-138	1.1927e-132	1.9894e-127	2.488e-122	2.3305e-117	1.6339e-112	8.57e-108	3.3627e-103	9.872e-99	2.1694e-94	3.5714e-90	4.4089e-86	4.087e-82	2.8493e-78	1.4967e-74	5.9363e-71	1.782e-67	4.0591e-64	7.0362e-61	9.3101e-58	9.4344e-55	7.3477e-52	4.4144e-49	2.054e-46	7.4319e-44	2.1001e-41	4.6558e-39	8.1347e-37	1.1256e-34	1.2395e-32	1.0919e-30	7.7335e-29	4.428e-27	2.0607e-25	7.8383e-24	2.4505e-22	6.3332e-21	1.361e-19	2.4461e-18	3.6994e-17	4.7361e-16	5.1647e-15	4.8274e-14	3.8922e-13	2.7249e-12	1.6676e-11	8.9837e-11	4.2914e-10	1.8315e-09	7.0402e-09	2.4579e-08	7.8635e-08	2.3265e-07	6.4251e-07	1.6715e-06	4.1311e-06	9.7705e-06	2.224e-05	4.8906e-05	0.00010411	0.00021468	0.00042868	0.0008284	0.0015483	0.0027975	0.0048864	0.0082538	0.013491	0.021357	0.032779	0.048836	0.07072	0.09967	0.1369	0.18351	0.24037	0.30809	0.3869	0.47665	0.57681	0.68647	0.8044	0.92913	1.059	1.1923	1.3272	1.462	1.5951	1.7249	1.8502	1.9698	2.0826	2.1878	2.2847	2.3727	2.4511	2.5196	2.5777	2.6249	2.6608	2.685	2.697	2.6963	2.6828	2.656	2.616	2.5628	2.4969	2.4188	2.3295	2.2304	2.123	2.009	1.8905	1.7695	1.6479	1.5275	1.41	1.2967	1.1889	1.0872	0.99221	0.90421	0.82328	0.74931	0.68206	0.62118	0.56629	0.51692	0.47262	0.43292	0.39738	0.36554	0.337	0.31136	0.28826	0.26737	0.24838	0.23104	0.21514	0.20049	0.18696	0.17443	0.16283	0.15208	0.14214	0.13294	0.12445	0.11661	0.10939	0.10275	0.096628	0.091002	0.085831	0.081078	0.076712	0.072699	0.069011	0.065621	0.062502	0.05963	0.056981	0.054531	0.052259	0.050141	0.048157	0.046287	0.044516	0.042831	0.041223	0.039686	0.038215	0.036808	0.035462	0.034175	0.032943	0.031763	0.030631	0.029544	0.028498	0.027493	0.026529	0.025607	0.02473	0.023898	0.023113	0.022375	0.021683	0.021032	0.020419	0.019838	0.019286	0.018756	0.018246	0.017751	0.01727	0.016798	0.016333	0.015873	0.015417	0.014961	0.014505	0.014048	0.013589	0.013128	0.012665	0.0122	0.011734
1.7701e-08	5.5728e-09	1.5922e-09	4.113e-10	9.5759e-11	2.0051e-11	3.7739e-12	6.3947e-13	9.7983e-14	1.3679e-14	1.7571e-15	2.0964e-16	2.335e-17	2.4221e-18	2.3175e-19	2.0176e-20	1.5762e-21	1.0918e-22	6.6431e-24	3.5249e-25	1.6218e-26	6.4396e-28	2.1973e-29	6.4176e-31	1.5986e-32	3.3838e-34	6.0658e-36	9.1775e-38	1.1681e-39	1.2469e-41	1.1128e-43	8.279e-46	5.1202e-48	2.6254e-50	1.1133e-52	3.8947e-55	1.1215e-57	2.6529e-60	5.1447e-63	8.165e-66	1.0588e-68	1.1202e-71	9.6584e-75	6.7784e-78	3.869e-81	1.7948e-84	6.7632e-88	2.0696e-91	5.1426e-95	1.0377e-98	1.7011e-102	2.2663e-106	2.4559e-110	2.1668e-114	1.5582e-118	9.1462e-123	4.3891e-127	1.7251e-131	5.5651e-136	1.4768e-140	3.2318e-145	5.8482e-150	8.7772e-155	1.096e-159	1.1425e-164	9.9786e-170	7.3303e-175	4.5474e-180	2.3926e-185	1.0724e-190	4.1144e-196	1.3577e-201	2.3302e-206	1.7394e-201	1.4022e-196	1.0128e-191	6.5235e-187	3.7308e-182	1.8863e-177	8.3966e-173	3.2779e-168	1.118e-163	3.3194e-159	8.5504e-155	1.9048e-150	3.6637e-146	6.2579e-142	1.4776e-137	1.437e-132	2.1573e-127	2.5956e-122	2.3527e-117	1.5989e-112	8.1421e-108	3.1062e-103	8.8792e-99	1.9027e-94	3.0588e-90	3.6928e-86	3.3523e-82	2.2919e-78	1.1822e-74	4.6109e-71	1.3629e-67	3.0608e-64	5.2376e-61	6.8501e-58	6.8697e-55	5.3012e-52	3.1594e-49	1.4599e-46	5.2519e-44	1.4771e-41	3.2626e-39	5.6853e-37	7.8534e-35	8.6417e-33	7.6134e-31	5.3981e-29	3.0965e-27	1.4449e-25	5.5148e-24	1.7313e-22	4.4962e-21	9.7158e-20	1.7571e-18	2.6757e-17	3.4513e-16	3.7944e-15	3.578e-14	2.9126e-13	2.0602e-12	1.275e-11	6.953e-11	3.3657e-10	1.4574e-09	5.6915e-09	2.0215e-08	6.5872e-08	1.9871e-07	5.5981e-07	1.4854e-06	3.7406e-06	8.9975e-06	2.0776e-05	4.6211e-05	9.9207e-05	0.00020575	0.00041232	0.00079831	0.0014931	0.0026979	0.0047106	0.0079524	0.01299	0.020553	0.031532	0.046966	0.068003	0.095842	0.13166	0.17652	0.2313	0.29659	0.37265	0.45935	0.55622	0.66239	0.77672	0.8978	1.024	1.1538	1.2853	1.4168	1.5469	1.674	1.7968	1.9142	2.025	2.1285	2.2239	2.3106	2.3881	2.4558	2.5133	2.5602	2.5961	2.6205	2.633	2.6334	2.6212	2.5962	2.5585	2.508	2.4451	2.3705	2.2851	2.1901	2.0869	1.9773	1.8632	1.7463	1.6286	1.512	1.3978	1.2876	1.1823	1.0829	0.98974	0.90327	0.82357	0.75055	0.68402	0.62369	0.56918	0.52007	0.47593	0.43632	0.40081	0.36896	0.34038	0.31468	0.29151	0.27053	0.25146	0.23402	0.21801	0.20324	0.18959	0.17694	0.1652	0.15433	0.14425	0.13494	0.12633	0.11839	0.11108	0.10435	0.098166	0.092478	0.087248	0.08244	0.078018	0.073948	0.0702	0.066747	0.063562	0.060621	0.057901	0.055381	0.053037	0.050849	0.048796	0.046861	0.045029	0.043289	0.041632	0.040052	0.038545	0.037109	0.035739	0.034434	0.033188	0.031997	0.030855	0.029759	0.028704	0.02769	0.026715	0.025781	0.024889	0.024041	0.023238	0.022482	0.021772	0.021104	0.020476	0.019884	0.019322	0.018787	0.018274	0.01778	0.017299	0.01683	0.016367	0.015909	0.015453	0.014997	0.014539	0.01408	0.013618	0.013155	0.012689	0.012222	0.011754
2.7102e-08	8.8388e-09	2.6278e-09	7.1044e-10	1.7445e-10	3.8916e-11	7.9064e-12	1.4698e-12	2.5169e-13	3.9982e-14	5.9213e-15	8.1782e-16	1.0477e-16	1.2326e-17	1.3163e-18	1.2616e-19	1.0747e-20	8.0745e-22	5.3161e-23	3.0511e-24	1.5195e-25	6.5396e-27	2.4226e-28	7.6958e-30	2.0889e-31	4.8272e-33	9.4651e-35	1.5694e-36	2.1934e-38	2.5756e-40	2.5335e-42	2.0815e-44	1.4243e-46	8.0956e-49	3.8125e-51	1.4841e-53	4.7642e-56	1.2587e-58	2.7312e-61	4.8592e-64	7.0768e-67	8.4243e-70	8.1867e-73	6.4876e-76	4.1887e-79	2.2018e-82	9.4181e-86	3.2771e-89	9.2745e-93	2.1351e-96	3.9994e-100	6.0987e-104	7.5763e-108	7.6744e-112	6.346e-116	4.2896e-120	2.374e-124	1.0776e-128	4.0201e-133	1.2354e-137	3.1346e-142	6.5855e-147	1.1488e-151	1.6694e-156	2.0274e-161	2.0651e-166	1.7711e-171	1.2839e-176	7.9013e-182	4.146e-187	1.8636e-192	7.211e-198	7.3823e-202	5.2377e-197	3.5825e-192	2.1963e-187	1.2013e-182	5.8374e-178	2.509e-173	9.5008e-169	3.1572e-164	9.1731e-160	2.322e-155	5.1036e-151	9.709e-147	1.5939e-142	2.2516e-138	2.7303e-134	2.8474e-130	2.7338e-126	4.4881e-122	2.3897e-117	1.4971e-112	7.3552e-108	2.7215e-103	7.56e-99	1.5769e-94	2.4714e-90	2.9134e-86	2.5865e-82	1.7321e-78	8.7645e-75	3.3582e-71	9.7658e-68	2.1609e-64	3.6485e-61	4.7146e-58	4.6778e-55	3.576e-52	2.1141e-49	9.7023e-47	3.4707e-44	9.7184e-42	2.1395e-39	3.7201e-37	5.1331e-35	5.6479e-33	4.9804e-31	3.5378e-29	2.0351e-27	9.5312e-26	3.6542e-24	1.1534e-22	3.0137e-21	6.5575e-20	1.1951e-18	1.8352e-17	2.3892e-16	2.6531e-15	2.5292e-14	2.0833e-13	1.4927e-12	9.3683e-12	5.1875e-11	2.5534e-10	1.1261e-09	4.4857e-09	1.6276e-08	5.4253e-08	1.6754e-07	4.8327e-07	1.312e-06	3.3746e-06	8.2702e-06	1.9396e-05	4.3671e-05	9.4591e-05	0.00019735	0.00039691	0.00076984	0.0014406	0.0026022	0.00454	0.007657	0.012495	0.019752	0.03028	0.045076	0.06524	0.091929	0.12628	0.16933	0.22192	0.28466	0.35781	0.4413	0.53466	0.63713	0.74761	0.86476	0.98709	1.113	1.2408	1.3688	1.4956	1.6197	1.7397	1.8545	1.9631	2.0647	2.1584	2.2436	2.3199	2.3867	2.4435	2.4901	2.5258	2.5505	2.5636	2.5649	2.5541	2.531	2.4955	2.4478	2.3882	2.3172	2.2358	2.1451	2.0464	1.9414	1.8318	1.7194	1.6061	1.4934	1.3829	1.2759	1.1736	1.0766	0.98556	0.90084	0.82255	0.75066	0.68502	0.62536	0.57134	0.52259	0.4787	0.43925	0.40382	0.37201	0.34343	0.3177	0.29448	0.27344	0.25428	0.23676	0.22065	0.20579	0.19203	0.17926	0.16741	0.15642	0.14623	0.1368	0.1281	0.12007	0.11267	0.10587	0.099622	0.093877	0.088596	0.083738	0.079266	0.075145	0.071343	0.067832	0.064587	0.061584	0.0588	0.056214	0.053803	0.051548	0.04943	0.047432	0.04554	0.043744	0.042037	0.040414	0.03887	0.037403	0.036009	0.034684	0.033422	0.032218	0.031065	0.029959	0.028896	0.027872	0.026887	0.025942	0.025036	0.024174	0.023356	0.022583	0.021855	0.021171	0.020529	0.019924	0.019354	0.018813	0.018298	0.017804	0.017326	0.01686	0.016401	0.015946	0.015493	0.015038	0.014582	0.014123	0.013662	0.013198	0.012733	0.012267	0.0118
4.1069e-08	1.3944e-08	4.3442e-09	1.241e-09	3.2534e-10	7.8481e-11	1.7492e-11	3.6201e-12	6.9852e-13	1.2585e-13	2.1119e-14	3.2794e-15	4.6691e-16	6.0349e-17	7.0153e-18	7.2746e-19	6.6834e-20	5.4091e-21	3.8373e-22	2.3755e-23	1.2781e-24	5.9521e-26	2.3905e-27	8.2486e-29	2.4366e-30	6.1403e-32	1.3154e-33	2.3878e-35	3.6604e-37	4.7241e-39	5.1173e-41	4.639e-43	3.5094e-45	2.2097e-47	1.155e-49	5.0002e-52	1.7886e-54	5.2757e-57	1.2806e-59	2.5536e-62	4.1762e-65	5.5933e-68	6.1271e-71	5.4836e-74	4.0059e-77	2.387e-80	1.1595e-83	4.5899e-87	1.4805e-90	3.8913e-94	8.3367e-98	1.4565e-101	2.0764e-105	2.4177e-109	2.3018e-113	1.7943e-117	1.1469e-121	6.0221e-126	2.6026e-130	9.2783e-135	2.7351e-139	6.6848e-144	1.3584e-148	2.3023e-153	3.2652e-158	3.8886e-163	3.9034e-168	3.3157e-173	2.3933e-178	1.4745e-183	7.7884e-189	3.5451e-194	1.1997e-196	1.4077e-192	8.1391e-188	4.2246e-183	1.9575e-178	8.0622e-174	2.9392e-169	9.4466e-165	2.6665e-160	6.5863e-156	1.4186e-151	2.6554e-147	4.3065e-143	6.0331e-139	7.2806e-135	7.5487e-131	6.7083e-127	5.0982e-123	3.3088e-119	1.8473e-115	9.9034e-112	9.7317e-108	2.377e-103	6.126e-99	1.2356e-94	1.8838e-90	2.165e-86	1.8772e-82	1.2298e-78	6.0976e-75	2.2931e-71	6.5555e-68	1.4282e-64	2.3779e-61	3.0347e-58	2.9781e-55	2.255e-52	1.3223e-49	6.0272e-47	2.1443e-44	5.9793e-42	1.3125e-39	2.2782e-37	3.1417e-35	3.4588e-33	3.0551e-31	2.1761e-29	1.2564e-27	5.9121e-26	2.2795e-24	7.2421e-23	1.9066e-21	4.1834e-20	7.6954e-19	1.1939e-17	1.5718e-16	1.767e-15	1.7071e-14	1.4269e-13	1.0389e-12	6.6361e-12	3.7461e-11	1.8832e-10	8.4976e-10	3.4695e-09	1.2922e-08	4.4253e-08	1.4045e-07	4.1608e-07	1.1583e-06	3.0474e-06	7.6148e-06	1.8144e-05	4.1351e-05	9.0349e-05	0.00018958	0.00038254	0.00074306	0.0013907	0.0025103	0.0043747	0.0073681	0.012007	0.018957	0.029029	0.043175	0.062449	0.087959	0.1208	0.16197	0.21231	0.27239	0.34252	0.42263	0.51232	0.61089	0.7173	0.8303	0.94847	1.0702	1.1941	1.3183	1.4416	1.5623	1.6793	1.7913	1.8975	1.9969	2.0887	2.1723	2.2473	2.313	2.369	2.4151	2.4507	2.4755	2.4892	2.4915	2.482	2.4608	2.4277	2.3828	2.3265	2.2593	2.182	2.0957	2.0018	1.9015	1.7968	1.6891	1.5802	1.4718	1.3652	1.2618	1.1625	1.0683	0.97961	0.89684	0.82016	0.74958	0.68497	0.62612	0.57271	0.52442	0.48085	0.44163	0.40635	0.37463	0.34609	0.32036	0.29712	0.27603	0.25682	0.23923	0.22304	0.2081	0.19424	0.18138	0.16944	0.15834	0.14806	0.13853	0.12974	0.12163	0.11416	0.1073	0.10099	0.095192	0.089863	0.08496	0.080442	0.076274	0.072423	0.068862	0.065563	0.062505	0.059664	0.057018	0.054547	0.052231	0.050051	0.047993	0.046043	0.044193	0.042437	0.04077	0.039189	0.03769	0.03627	0.034923	0.033644	0.032425	0.03126	0.030144	0.029071	0.028038	0.027044	0.026088	0.025172	0.024297	0.023465	0.022677	0.021934	0.021236	0.02058	0.019965	0.019386	0.01884	0.018323	0.01783	0.017355	0.016893	0.01644	0.01599	0.015542	0.015092	0.014639	0.014184	0.013726	0.013266	0.012804	0.012342	0.011879
6.2377e-08	2.2201e-08	7.3107e-09	2.2295e-09	6.3107e-10	1.6631e-10	4.0928e-11	9.4217e-12	2.0272e-12	4.0607e-13	7.5231e-14	1.2786e-14	1.9765e-15	2.7568e-16	3.4451e-17	3.8335e-18	3.7782e-19	3.2824e-20	2.5028e-21	1.668e-22	9.6783e-24	4.8703e-25	2.1176e-26	7.9263e-28	2.545e-29	6.9846e-31	1.6329e-32	3.2411e-34	5.4441e-36	7.7141e-38	9.1931e-40	9.1871e-42	7.6775e-44	5.3508e-46	3.1023e-48	1.4926e-50	5.9462e-53	1.9572e-55	5.3124e-58	1.1869e-60	2.1793e-63	3.2835e-66	4.0543e-69	4.0981e-72	3.3878e-75	2.2888e-78	1.263e-81	5.6907e-85	2.0931e-88	6.2854e-92	1.5412e-95	3.0874e-99	5.0559e-103	6.7743e-107	7.4344e-111	6.6914e-115	4.9469e-119	3.009e-123	1.5089e-127	6.2512e-132	2.1447e-136	6.1096e-141	1.4491e-145	2.8707e-150	4.765e-155	6.6501e-160	7.8324e-165	7.8155e-170	6.6345e-175	4.8119e-180	2.9954e-185	1.8257e-190	3.0479e-190	3.8001e-188	1.6394e-183	7.1869e-179	2.8145e-174	9.8038e-170	3.025e-165	8.2354e-161	1.9707e-156	4.1304e-152	7.5559e-148	1.2025e-143	1.6598e-139	1.9812e-135	2.0395e-131	1.806e-127	1.3725e-123	8.9306e-120	4.9659e-116	2.3553e-112	9.5136e-109	3.2718e-105	9.704e-102	2.821e-98	1.4076e-94	1.4421e-90	1.5286e-86	1.2832e-82	8.2045e-79	3.9812e-75	1.468e-71	4.1221e-68	8.8362e-65	1.4499e-61	1.8266e-58	1.7723e-55	1.3289e-52	7.7285e-50	3.4991e-47	1.2382e-44	3.4392e-42	7.5297e-40	1.3053e-37	1.8001e-35	1.9843e-33	1.757e-31	1.2559e-29	7.2861e-28	3.4485e-26	1.3389e-24	4.288e-23	1.1392e-21	2.5253e-20	4.6985e-19	7.3818e-18	9.8544e-17	1.1249e-15	1.1054e-14	9.4131e-14	6.9956e-13	4.5701e-12	2.644e-11	1.365e-10	6.3371e-10	2.6659e-09	1.0239e-08	3.6166e-08	1.1828e-07	3.6048e-07	1.0296e-06	2.7702e-06	7.0525e-06	1.7055e-05	3.9304e-05	8.655e-05	0.00018252	0.00036927	0.00071796	0.0013433	0.0024222	0.0042146	0.007086	0.011528	0.01817	0.027785	0.041276	0.059648	0.083959	0.11526	0.15451	0.20252	0.25988	0.32687	0.40349	0.48938	0.58388	0.68604	0.79469	0.90848	1.0259	1.1455	1.2658	1.3852	1.5024	1.6161	1.7252	1.8286	1.9256	2.0154	2.0972	2.1707	2.2352	2.2904	2.3359	2.3713	2.3962	2.4104	2.4136	2.4056	2.3863	2.3555	2.3135	2.2606	2.1972	2.1242	2.0425	1.9533	1.858	1.7582	1.6554	1.5513	1.4473	1.3449	1.2452	1.1493	1.058	0.97185	0.89124	0.81635	0.74723	0.68381	0.62589	0.57321	0.52547	0.48232	0.4434	0.40833	0.37675	0.3483	0.32261	0.29938	0.27827	0.25903	0.24139	0.22515	0.21014	0.19622	0.18328	0.17126	0.16008	0.14972	0.14012	0.13124	0.12306	0.11554	0.10861	0.10226	0.096413	0.09104	0.086093	0.081533	0.077322	0.073427	0.06982	0.066476	0.063369	0.060478	0.057781	0.055257	0.052886	0.05065	0.048536	0.046532	0.044631	0.042827	0.041116	0.039497	0.037966	0.036519	0.035149	0.03385	0.032616	0.031438	0.03031	0.029228	0.028187	0.027184	0.02622	0.025295	0.02441	0.023567	0.022767	0.022013	0.021302	0.020635	0.020011	0.019425	0.018876	0.018357	0.017866	0.017394	0.016938	0.01649	0.016047	0.015605	0.015162	0.014716	0.014267	0.013816	0.013362	0.012907	0.012451	0.011996
9.5906e-08	3.603e-08	1.2634e-08	4.1417e-09	1.2717e-09	3.662e-10	9.8904e-11	2.4998e-11	5.8869e-12	1.2836e-12	2.5724e-13	4.7036e-14	7.7916e-15	1.1619e-15	1.5511e-16	1.8441e-17	1.9437e-18	1.8085e-19	1.4792e-20	1.0595e-21	6.6195e-23	3.5939e-24	1.6893e-25	6.8493e-27	2.3871e-28	7.1255e-30	1.8156e-31	3.9358e-33	7.2352e-35	1.1244e-36	1.4726e-38	1.6207e-40	1.4947e-42	1.1521e-44	7.4029e-47	3.9558e-49	1.7539e-51	6.4388e-54	1.9533e-56	4.8878e-59	1.0072e-61	1.7068e-64	2.3752e-67	2.7114e-70	2.5365e-73	1.9433e-76	1.2185e-79	6.2505e-83	2.6228e-86	9.0023e-90	2.5281e-93	5.8111e-97	1.094e-100	1.6883e-104	2.1379e-108	2.2244e-112	1.9043e-116	1.3437e-120	7.8292e-125	3.7752e-129	1.5099e-133	5.0223e-138	1.393e-142	3.2318e-147	6.2913e-152	1.0312e-156	1.4283e-161	1.6782e-166	1.6795e-171	1.4378e-176	1.0576e-181	5.5943e-185	7.3013e-184	1.0797e-182	2.9332e-179	1.0784e-174	3.5617e-170	1.0471e-165	2.7292e-161	6.2818e-157	1.2721e-152	2.2584e-148	3.5032e-144	4.7328e-140	5.5518e-136	5.6386e-132	4.945e-128	3.7353e-124	2.4246e-120	1.3494e-116	6.4273e-113	2.615e-109	9.0733e-106	2.6809e-102	6.7373e-99	1.4387e-95	2.6127e-92	4.0975e-89	6.2192e-86	1.4005e-82	5.6876e-79	2.4853e-75	8.85e-72	2.4322e-68	5.1228e-65	8.2779e-62	1.0289e-58	9.8668e-56	7.3247e-53	4.2243e-50	1.8997e-47	6.688e-45	1.8508e-42	4.0435e-40	7.005e-38	9.6674e-36	1.0679e-33	9.4886e-32	6.8158e-30	3.9785e-28	1.8972e-26	7.4315e-25	2.4045e-23	6.4631e-22	1.4517e-20	2.7411e-19	4.378e-18	5.9524e-17	6.9343e-16	6.9681e-15	6.0817e-14	4.6429e-13	3.1226e-12	1.8636e-11	9.941e-11	4.7737e-10	2.0779e-09	8.2539e-09	3.0109e-08	1.0147e-07	3.1773e-07	9.2917e-07	2.5501e-06	6.5975e-06	1.6154e-05	3.757e-05	8.3244e-05	0.0001762	0.00035712	0.00069451	0.0012984	0.0023376	0.0040595	0.0068109	0.011057	0.017394	0.026553	0.039389	0.056855	0.079957	0.10969	0.147	0.19264	0.24721	0.311	0.38403	0.466	0.5563	0.65407	0.7582	0.86743	0.98037	1.0956	1.2115	1.3269	1.4403	1.5505	1.6564	1.757	1.8515	1.939	2.0189	2.0907	2.154	2.2082	2.253	2.2881	2.3132	2.3279	2.332	2.3254	2.308	2.2796	2.2405	2.191	2.1315	2.0627	1.9857	1.9014	1.8111	1.7164	1.6187	1.5194	1.42	1.3219	1.2262	1.1339	1.0457	0.96227	0.88398	0.81105	0.74356	0.68146	0.6246	0.57277	0.52569	0.48304	0.4445	0.40972	0.37834	0.35002	0.32442	0.30122	0.28013	0.26088	0.24322	0.22695	0.2119	0.19793	0.18495	0.17287	0.16163	0.15121	0.14154	0.13261	0.12438	0.1168	0.10983	0.10342	0.097536	0.092121	0.087133	0.082532	0.07828	0.074345	0.070699	0.067314	0.064167	0.061234	0.058493	0.055923	0.053504	0.051219	0.049054	0.047	0.04505	0.0432	0.041448	0.039792	0.038228	0.036752	0.035359	0.03404	0.032789	0.031598	0.030459	0.029368	0.028319	0.02731	0.02634	0.025408	0.024516	0.023666	0.022858	0.022094	0.021375	0.0207	0.020069	0.019478	0.018926	0.018408	0.017918	0.01745	0.016999	0.016558	0.016123	0.015688	0.015253	0.014816	0.014376	0.013934	0.01349	0.013044	0.012598	0.012151
1.4982e-07	5.9675e-08	2.2355e-08	7.8823e-09	2.6164e-09	8.1664e-10	2.3899e-10	6.5284e-11	1.6549e-11	3.8674e-12	8.2774e-13	1.6123e-13	2.8415e-14	4.5072e-15	6.4033e-16	8.1114e-17	9.1229e-18	9.0728e-19	7.9472e-20	6.1073e-21	4.1021e-22	2.3991e-23	1.2173e-24	5.3385e-26	2.0166e-27	6.5383e-29	1.8133e-30	4.2876e-32	8.6154e-34	1.4666e-35	2.1085e-37	2.553e-39	2.5959e-41	2.2108e-43	1.573e-45	9.3276e-48	4.5994e-50	1.8819e-52	6.377e-55	1.7864e-57	4.1298e-60	7.868e-63	1.2337e-65	1.5902e-68	1.6834e-71	1.4625e-74	1.042e-77	6.0873e-81	2.9148e-84	1.144e-87	3.6812e-91	9.7152e-95	2.1041e-98	3.743e-102	5.4741e-106	6.5902e-110	6.5404e-114	5.3598e-118	3.6336e-122	2.0421e-126	9.5363e-131	3.7095e-135	1.2053e-139	3.2807e-144	7.5045e-149	1.4475e-153	2.3628e-158	3.2763e-163	3.8746e-168	3.9245e-173	3.5102e-178	1.0803e-178	1.3486e-177	1.7603e-176	6.9759e-175	1.4238e-170	3.9573e-166	9.8013e-162	2.154e-157	4.1844e-153	7.159e-149	1.0749e-144	1.4118e-140	1.6168e-136	1.6097e-132	1.3894e-128	1.0369e-124	6.6739e-121	3.6966e-117	1.7582e-113	7.1673e-110	2.4996e-106	7.4461e-103	1.892e-99	4.0954e-96	7.5439e-93	1.1815e-89	1.5721e-86	1.7768e-83	1.7086e-80	1.4179e-77	1.1029e-74	1.0726e-71	1.6543e-68	2.9545e-65	4.5425e-62	5.5184e-59	5.2125e-56	3.8247e-53	2.1855e-50	9.7588e-48	3.4179e-45	9.4278e-43	2.0567e-40	3.5642e-38	4.929e-36	5.4656e-34	4.8834e-32	3.5335e-30	2.0813e-28	1.0033e-26	3.9804e-25	1.3069e-23	3.5718e-22	8.1743e-21	1.5762e-19	2.5765e-18	3.5937e-17	4.3049e-16	4.4582e-15	4.0184e-14	3.1737e-13	2.2111e-12	1.3679e-11	7.5642e-11	3.7624e-10	1.6937e-09	6.9416e-09	2.6053e-08	9.0044e-08	2.8814e-07	8.5815e-07	2.3904e-06	6.2571e-06	1.5456e-05	3.6168e-05	8.0456e-05	0.00017066	0.00034609	0.00067266	0.0012557	0.0022563	0.0039092	0.0065429	0.010596	0.016632	0.025339	0.037524	0.054086	0.075977	0.10415	0.13949	0.18275	0.23449	0.29502	0.3644	0.44236	0.52837	0.62162	0.72111	0.82563	0.93389	1.0445	1.1561	1.2672	1.3766	1.4832	1.5857	1.6832	1.7749	1.86	1.9379	2.008	2.0698	2.123	2.1671	2.2019	2.227	2.2422	2.2473	2.2421	2.2265	2.2005	2.1643	2.1182	2.0626	1.9981	1.9257	1.8463	1.7612	1.6716	1.579	1.4847	1.3901	1.2965	1.2049	1.1163	1.0314	0.95085	0.87505	0.80424	0.73851	0.67787	0.6222	0.57132	0.52501	0.48296	0.44489	0.41045	0.37934	0.3512	0.32573	0.30262	0.28159	0.26236	0.24471	0.22843	0.21337	0.19938	0.18637	0.17426	0.16299	0.15252	0.14282	0.13385	0.12557	0.11794	0.11093	0.10449	0.09856	0.093105	0.088077	0.083436	0.079146	0.075174	0.071492	0.068072	0.06489	0.061923	0.059145	0.056537	0.054077	0.051748	0.049539	0.04744	0.045445	0.043552	0.04176	0.040068	0.038472	0.036968	0.03555	0.034212	0.032944	0.031739	0.03059	0.029491	0.028436	0.027423	0.026449	0.025515	0.024619	0.023765	0.022952	0.022183	0.021459	0.020779	0.020144	0.019551	0.018998	0.01848	0.017992	0.017529	0.017083	0.016648	0.01622	0.015794	0.015368	0.01494	0.014511	0.01408	0.013648	0.013214	0.012779	0.012343
2.369e-07	1.001e-07	3.9989e-08	1.5091e-08	5.3707e-09	1.7967e-09	5.6251e-10	1.6393e-10	4.4205e-11	1.0964e-11	2.487e-12	5.1306e-13	9.5786e-14	1.6108e-14	2.4291e-15	3.2713e-16	3.9184e-17	4.1578e-18	3.8934e-19	3.205e-20	2.3105e-21	1.4534e-22	7.9473e-24	3.7643e-25	1.5389e-26	5.4116e-28	1.6313e-29	4.2015e-31	9.216e-33	1.7163e-34	2.7056e-36	3.5997e-38	4.0311e-40	3.7893e-42	2.9826e-44	1.9609e-46	1.0745e-48	4.8964e-51	1.8521e-53	5.8042e-56	1.5046e-58	3.2215e-61	5.6893e-64	8.2783e-67	9.9149e-70	9.7669e-73	7.9083e-76	5.2614e-79	2.8754e-82	1.2909e-85	4.7613e-89	1.4434e-92	3.5984e-96	7.3832e-100	1.248e-103	1.7401e-107	2.0039e-111	1.9093e-115	1.5077e-119	9.8889e-124	5.399e-128	2.4598e-132	9.3767e-137	2.9995e-141	8.0768e-146	1.8368e-150	3.5404e-155	5.8054e-160	8.1305e-165	9.766e-170	1.5354e-173	1.6188e-172	1.9092e-171	2.35e-170	3.0783e-169	1.6898e-166	3.8519e-162	8.0228e-158	1.4843e-153	2.4298e-149	3.5069e-145	4.4472e-141	4.939e-137	4.7889e-133	4.042e-129	2.9616e-125	1.8789e-121	1.0296e-117	4.8623e-114	1.9749e-110	6.8855e-107	2.0572e-103	5.2586e-100	1.1485e-96	2.1407e-93	3.4015e-90	4.6036e-87	5.3031e-84	5.1968e-81	4.3307e-78	3.0686e-75	1.8496e-72	9.509e-70	4.2287e-67	1.728e-64	7.7808e-62	4.7221e-59	3.4007e-56	2.2603e-53	1.2356e-50	5.3795e-48	1.8537e-45	5.0593e-43	1.0969e-40	1.8964e-38	2.6254e-36	2.9234e-34	2.6308e-32	1.9228e-30	1.1472e-28	5.6168e-27	2.2691e-25	7.6061e-24	2.1276e-22	4.9953e-21	9.903e-20	1.6677e-18	2.4004e-17	2.9711e-16	3.182e-15	2.9668e-14	2.4231e-13	1.7441e-12	1.1131e-11	6.3359e-11	3.2361e-10	1.4917e-09	6.2426e-09	2.3853e-08	8.3693e-08	2.7118e-07	8.1579e-07	2.2905e-06	6.0312e-06	1.4961e-05	3.5103e-05	7.8193e-05	0.00016589	0.00033615	0.00065233	0.0012152	0.0021781	0.0037636	0.0062818	0.010146	0.015886	0.024148	0.03569	0.051356	0.072045	0.098656	0.13203	0.17289	0.22179	0.27905	0.34474	0.41864	0.50028	0.58894	0.68368	0.78339	0.88683	0.9927	1.0997	1.2064	1.3118	1.4144	1.5134	1.6077	1.6965	1.7791	1.8548	1.923	1.9834	2.0354	2.0787	2.1131	2.1383	2.1539	2.1599	2.156	2.1423	2.1188	2.0855	2.0428	1.991	1.9308	1.8631	1.7886	1.7086	1.6242	1.5368	1.4475	1.3578	1.2687	1.1813	1.0965	1.0151	0.9376	0.86443	0.79587	0.73205	0.67299	0.61863	0.56883	0.52338	0.48203	0.44451	0.4105	0.37972	0.35183	0.32654	0.30356	0.28262	0.26345	0.24583	0.22958	0.21453	0.20055	0.18754	0.17542	0.16414	0.15366	0.14393	0.13494	0.12663	0.11898	0.11193	0.10545	0.099486	0.093992	0.088926	0.084247	0.07992	0.075914	0.072199	0.06875	0.065539	0.062543	0.059735	0.057094	0.0546	0.052234	0.049985	0.047845	0.045809	0.043877	0.042048	0.040321	0.038694	0.037163	0.035721	0.034363	0.033079	0.031862	0.030704	0.029599	0.028541	0.027526	0.026552	0.025617	0.024721	0.023866	0.023053	0.022283	0.021557	0.020876	0.020239	0.019646	0.019094	0.018578	0.018093	0.017633	0.017192	0.016763	0.016341	0.015923	0.015506	0.015089	0.014671	0.014253	0.013833	0.013412	0.012989	0.012564
3.7564e-07	1.6791e-07	7.1156e-08	2.8526e-08	1.0783e-08	3.8271e-09	1.2689e-09	3.9092e-10	1.1128e-10	2.9113e-11	6.9643e-12	1.516e-12	2.9891e-13	5.3158e-14	8.4912e-15	1.2134e-15	1.545e-16	1.7461e-17	1.7449e-18	1.536e-19	1.1865e-20	8.0139e-22	4.7153e-23	2.4083e-24	1.0639e-25	4.0517e-27	1.3256e-28	3.7135e-30	8.8799e-32	1.8068e-33	3.1189e-35	4.5544e-37	5.6104e-39	5.8148e-41	5.0578e-43	3.6833e-45	2.2407e-47	1.1363e-49	4.794e-52	1.6797e-54	4.8793e-57	1.1734e-59	2.333e-62	3.8308e-65	5.1894e-68	5.7952e-71	5.3318e-74	4.0398e-77	2.5201e-80	1.2943e-83	5.4734e-87	1.9066e-90	5.4738e-94	1.2962e-97	2.534e-101	4.0946e-105	5.4764e-109	6.072e-113	5.5913e-117	4.2846e-121	2.7382e-125	1.4631e-129	6.553e-134	2.4673e-138	7.8334e-143	2.104e-147	4.7974e-152	9.3206e-157	1.549e-161	2.228e-166	1.7364e-167	1.8527e-166	2.0637e-165	2.3964e-164	2.8983e-163	5.3213e-162	3.2832e-158	5.7319e-154	8.9133e-150	1.2279e-145	1.4931e-141	1.5971e-137	1.4981e-133	1.2285e-129	8.7818e-126	5.4573e-122	2.9407e-118	1.3709e-114	5.5162e-111	1.9121e-107	5.6988e-104	1.458e-100	3.197e-97	6.0004e-94	9.6282e-91	1.3195e-87	1.5431e-84	1.539e-81	1.3082e-78	9.4752e-76	5.8464e-73	3.073e-70	1.3763e-67	5.2551e-65	1.7143e-62	4.8115e-60	1.1902e-57	2.7868e-55	7.0895e-53	2.1371e-50	6.8787e-48	2.0262e-45	5.0302e-43	1.0217e-40	1.6837e-38	2.2493e-36	2.4404e-34	2.1572e-32	1.5592e-30	9.2536e-29	4.5295e-27	1.8372e-25	6.2048e-24	1.7538e-22	4.1706e-21	8.3882e-20	1.4347e-18	2.0985e-17	2.6395e-16	2.8712e-15	2.7167e-14	2.2489e-13	1.6382e-12	1.0563e-11	6.0652e-11	3.1196e-10	1.4459e-09	6.076e-09	2.3286e-08	8.1877e-08	2.6566e-07	7.9981e-07	2.2462e-06	5.9138e-06	1.4661e-05	3.4366e-05	7.6442e-05	0.00016187	0.00032729	0.00063351	0.0011768	0.0021029	0.0036225	0.006028	0.0097078	0.015158	0.022983	0.033892	0.048678	0.06818	0.093246	0.12467	0.16315	0.20922	0.2632	0.32518	0.39501	0.47225	0.55626	0.64619	0.74099	0.83952	0.94055	1.0428	1.1451	1.2461	1.3448	1.44	1.531	1.6168	1.6967	1.77	1.8363	1.8951	1.9459	1.9884	2.0224	2.0475	2.0636	2.0704	2.068	2.0561	2.0349	2.0045	1.9651	1.9172	1.8613	1.7981	1.7286	1.6536	1.5744	1.4922	1.408	1.3232	1.2387	1.1556	1.0748	0.99689	0.92253	0.85212	0.78593	0.72414	0.6668	0.61387	0.56525	0.52078	0.48022	0.44333	0.40984	0.37945	0.35188	0.32683	0.30402	0.28321	0.26414	0.2466	0.2304	0.21539	0.20145	0.18846	0.17636	0.16509	0.15462	0.14489	0.13589	0.12757	0.11989	0.11282	0.10631	0.10032	0.094787	0.089684	0.084969	0.080608	0.07657	0.072827	0.069352	0.066117	0.063096	0.060263	0.057595	0.055071	0.052672	0.050388	0.048212	0.046139	0.044171	0.042307	0.040547	0.038891	0.037334	0.03587	0.034494	0.033195	0.031968	0.030803	0.029694	0.028635	0.027621	0.026649	0.025717	0.024824	0.023972	0.023161	0.022392	0.021669	0.02099	0.020355	0.019765	0.019215	0.018702	0.01822	0.017764	0.017326	0.016902	0.016486	0.016075	0.015666	0.015259	0.014853	0.014447	0.014039	0.01363	0.013219	0.012805
5.908e-07	2.78e-07	1.2418e-07	5.2481e-08	2.0901e-08	7.8074e-09	2.7216e-09	8.8081e-10	2.6332e-10	7.2361e-11	1.8194e-11	4.1671e-12	8.6572e-13	1.6247e-13	2.7435e-14	4.152e-15	5.6098e-16	6.7407e-17	7.1761e-18	6.7432e-19	5.5722e-20	4.0343e-21	2.55e-22	1.4021e-23	6.6827e-25	2.7517e-26	9.7559e-28	2.9684e-29	7.7268e-31	1.7154e-32	3.2382e-34	5.183e-36	7.0148e-38	8.0066e-40	7.6877e-42	6.1947e-44	4.1798e-46	2.3566e-48	1.108e-50	4.337e-53	1.4108e-55	3.8085e-58	8.5206e-61	1.578e-63	2.4169e-66	3.0589e-69	3.1971e-72	2.7584e-75	1.964e-78	1.154e-81	5.5962e-85	2.2405e-88	7.41e-92	2.0259e-95	4.5828e-99	8.5878e-103	1.3349e-106	1.7238e-110	1.8526e-114	1.6602e-118	1.2434e-122	7.8009e-127	4.1104e-131	1.8241e-135	6.8386e-140	2.1728e-144	5.8705e-149	1.3538e-153	2.6746e-158	2.11e-162	1.5998e-161	1.6139e-160	1.6975e-159	1.8593e-158	2.1181e-157	2.5219e-156	2.7491e-154	3.5695e-150	4.6573e-146	5.392e-142	5.5174e-138	4.9732e-134	3.9361e-130	2.7273e-126	1.6497e-122	8.6881e-119	3.9739e-115	1.5749e-111	5.3968e-108	1.5958e-104	4.0642e-101	8.9011e-98	1.6739e-94	2.6994e-91	3.7286e-88	4.4072e-85	4.4541e-82	3.8464e-79	2.8369e-76	1.7864e-73	9.6025e-71	4.4063e-68	1.7262e-65	5.7756e-63	1.6513e-60	4.0387e-58	8.4709e-56	1.5345e-53	2.4495e-51	3.6263e-49	5.4649e-47	9.0461e-45	1.5814e-42	2.614e-40	3.7634e-38	4.5443e-36	4.5404e-34	3.7414e-32	2.5448e-30	1.4323e-28	6.694e-27	2.6074e-25	8.5e-24	2.3291e-22	5.3887e-21	1.0577e-19	1.77e-18	2.5378e-17	3.1341e-16	3.3514e-15	3.1203e-14	2.5435e-13	1.8257e-12	1.1607e-11	6.5745e-11	3.3381e-10	1.5285e-09	6.3505e-09	2.4087e-08	8.3899e-08	2.6995e-07	8.0679e-07	2.2514e-06	5.8944e-06	1.4542e-05	3.3937e-05	7.5183e-05	0.0001586	0.00031949	0.00061617	0.0011405	0.0020308	0.0034861	0.0057814	0.0092809	0.014448	0.021847	0.032138	0.04606	0.064398	0.087946	0.11745	0.15358	0.19684	0.24757	0.30587	0.37161	0.44446	0.5238	0.60888	0.69873	0.79228	0.88838	0.98584	1.0835	1.1801	1.2746	1.3661	1.4535	1.5362	1.6133	1.6842	1.7484	1.8055	1.8551	1.8967	1.9302	1.9553	1.9718	1.9795	1.9783	1.9683	1.9494	1.9218	1.8858	1.8416	1.7899	1.7313	1.6665	1.5966	1.5226	1.4455	1.3664	1.2864	1.2066	1.1279	1.0511	0.9768	0.90568	0.83813	0.77443	0.71479	0.65928	0.6079	0.56058	0.51718	0.47751	0.44135	0.40844	0.37852	0.35132	0.32656	0.30399	0.28335	0.26442	0.24699	0.23088	0.21594	0.20206	0.18912	0.17707	0.16584	0.15539	0.14568	0.13669	0.12837	0.12069	0.11361	0.10708	0.10105	0.095493	0.090358	0.085611	0.081219	0.077153	0.073384	0.069886	0.066629	0.063588	0.060733	0.058042	0.055491	0.053063	0.050748	0.048539	0.046433	0.044432	0.042536	0.040746	0.039063	0.037481	0.035997	0.034603	0.033292	0.032056	0.030887	0.029776	0.028718	0.027707	0.02674	0.025813	0.024926	0.02408	0.023274	0.022511	0.021792	0.021118	0.020489	0.019903	0.019358	0.018849	0.01837	0.017917	0.017483	0.017062	0.016651	0.016246	0.015845	0.015446	0.01505	0.014654	0.014258	0.013861	0.01346	0.013054
9.1278e-07	4.4972e-07	2.1042e-07	9.3142e-08	3.8832e-08	1.5176e-08	5.5331e-09	1.8729e-09	5.8586e-10	1.6859e-10	4.4437e-11	1.0684e-11	2.3338e-12	4.6129e-13	8.2188e-14	1.3149e-14	1.8816e-15	2.3995e-16	2.7165e-17	2.7201e-18	2.4002e-19	1.8596e-20	1.2605e-21	7.4488e-23	3.8242e-24	1.6999e-25	6.5208e-27	2.1516e-28	6.0877e-30	1.4724e-31	3.0354e-33	5.3184e-35	7.8981e-37	9.9154e-39	1.0497e-40	9.3487e-43	6.9889e-45	4.3765e-47	2.2912e-49	1.001e-51	3.6436e-54	1.1033e-56	2.7757e-59	5.795e-62	1.003e-64	1.4382e-67	1.7071e-70	1.6767e-73	1.3625e-76	9.1582e-80	5.0929e-83	2.3439e-86	8.9318e-90	2.8202e-93	7.3852e-97	1.6057e-100	2.9024e-104	4.3681e-108	5.4831e-112	5.7518e-116	5.0529e-120	3.7262e-124	2.3124e-128	1.2111e-132	5.3683e-137	2.0205e-141	6.4786e-146	1.7761e-150	4.1928e-155	1.2242e-156	1.1187e-155	1.0666e-154	1.0592e-153	1.0941e-152	1.1742e-151	1.3079e-150	1.6713e-149	1.9572e-146	2.1151e-142	2.0549e-138	1.7676e-134	1.3412e-130	8.9494e-127	5.2355e-123	2.678e-119	1.1945e-115	4.635e-112	1.561e-108	4.5534e-105	1.1482e-101	2.4982e-98	4.683e-95	7.552e-92	1.0464e-88	1.2443e-85	1.2687e-82	1.1083e-79	8.2894e-77	5.3064e-74	2.9063e-71	1.3617e-68	5.4578e-66	1.8717e-63	5.4937e-61	1.3808e-58	2.9735e-56	5.4919e-54	8.7121e-52	1.1907e-49	1.4127e-47	1.4822e-45	1.4343e-43	1.373e-41	1.3796e-39	1.4305e-37	1.4142e-35	1.2409e-33	9.2938e-32	5.8455e-30	3.0722e-28	1.3493e-26	4.9628e-25	1.5339e-23	3.9992e-22	8.8326e-21	1.6599e-19	2.6666e-18	3.6798e-17	4.3835e-16	4.531e-15	4.0856e-14	3.2312e-13	2.2541e-12	1.3951e-11	7.706e-11	3.8217e-10	1.7122e-09	6.9729e-09	2.597e-08	8.8995e-08	2.8222e-07	8.3281e-07	2.2984e-06	5.9603e-06	1.4583e-05	3.3791e-05	7.4391e-05	0.00015605	0.00031276	0.00060037	0.0011064	0.0019619	0.0033546	0.0055426	0.0088664	0.013758	0.020742	0.030431	0.043512	0.060714	0.082778	0.11041	0.14423	0.18473	0.23224	0.2869	0.34861	0.41708	0.49177	0.57199	0.65687	0.74541	0.83653	0.92911	1.022	1.1142	1.2045	1.292	1.3758	1.4552	1.5294	1.5978	1.6599	1.7153	1.7635	1.8042	1.8371	1.8621	1.879	1.8875	1.8877	1.8794	1.8628	1.838	1.8051	1.7647	1.7171	1.6629	1.6029	1.5379	1.469	1.3969	1.3229	1.2478	1.1726	1.0983	1.0255	0.95492	0.88712	0.82251	0.76141	0.70401	0.65044	0.60072	0.5548	0.51257	0.47389	0.43854	0.4063	0.37693	0.35016	0.32575	0.30346	0.28304	0.26428	0.247	0.23101	0.21618	0.20238	0.18952	0.17754	0.16637	0.15597	0.1463	0.13734	0.12904	0.12137	0.11428	0.10774	0.1017	0.096116	0.090954	0.08618	0.081762	0.077672	0.073881	0.070363	0.067087	0.064027	0.061152	0.058439	0.055864	0.05341	0.051067	0.048828	0.046692	0.04466	0.042735	0.040918	0.039209	0.037605	0.036102	0.034693	0.033371	0.032128	0.030955	0.029845	0.028791	0.027785	0.026825	0.025905	0.025026	0.024187	0.023389	0.022633	0.021922	0.021255	0.020633	0.020054	0.019515	0.019011	0.018537	0.018087	0.017656	0.017238	0.01683	0.01643	0.016034	0.015643	0.015254	0.014868	0.014481	0.014091	0.013698	0.0133
1.3756e-06	7.0609e-07	3.4424e-07	1.5875e-07	6.894e-08	2.8065e-08	1.0661e-08	3.7617e-09	1.2276e-09	3.69e-10	1.0173e-10	2.5623e-11	5.873e-12	1.2203e-12	2.2898e-13	3.8652e-14	5.8478e-15	7.8998e-16	9.4934e-17	1.0112e-17	9.5108e-19	7.8714e-20	5.7119e-21	3.6215e-22	1.9993e-23	9.5779e-25	3.9689e-26	1.4179e-27	4.3539e-29	1.1456e-30	2.5753e-32	4.9323e-34	8.0264e-36	1.1069e-37	1.2904e-39	1.2687e-41	1.0497e-43	7.2929e-46	4.2468e-48	2.069e-50	8.4196e-53	2.8576e-55	8.0786e-58	1.9001e-60	3.7145e-63	6.0306e-66	8.1261e-69	9.0838e-72	8.4217e-75	6.475e-78	4.129e-81	2.1844e-84	9.5919e-88	3.4985e-91	1.0608e-94	2.677e-98	5.6295e-102	9.8797e-106	1.4495e-109	1.7811e-113	1.8368e-117	1.5936e-121	1.166e-125	7.2144e-130	3.7857e-134	1.69e-138	6.4399e-143	2.102e-147	1.4143e-151	6.8408e-151	5.9187e-150	5.3334e-149	4.9995e-148	4.8698e-147	4.9231e-146	5.1594e-145	5.6092e-144	1.5646e-142	8.3719e-139	6.7921e-135	4.9045e-131	3.1302e-127	1.7596e-123	8.6857e-120	3.7547e-116	1.4178e-112	4.6653e-109	1.3348e-105	3.3135e-102	7.1238e-99	1.3241e-95	2.1244e-92	2.9379e-89	3.4979e-86	3.5815e-83	3.1508e-80	2.3798e-77	1.5424e-74	8.5734e-72	4.0863e-69	1.6697e-66	5.8498e-64	1.7574e-61	4.529e-59	1.0016e-56	1.9024e-54	3.1051e-52	4.3598e-50	5.2725e-48	5.5026e-46	4.9733e-44	3.9223e-42	2.7451e-40	1.7636e-38	1.0961e-36	6.9039e-35	4.393e-33	2.6774e-31	1.4734e-29	7.0464e-28	2.8745e-26	9.9329e-25	2.9041e-23	7.1959e-22	1.5158e-20	2.7249e-19	4.1981e-18	5.5685e-17	6.3898e-16	6.3749e-15	5.5583e-14	4.2582e-13	2.8823e-12	1.7337e-11	9.3216e-11	4.5072e-10	1.972e-09	7.8556e-09	2.8668e-08	9.6428e-08	3.0068e-07	8.7397e-07	2.3798e-06	6.0987e-06	1.4767e-05	3.3906e-05	7.4046e-05	0.00015423	0.00030715	0.00058622	0.0010747	0.0018965	0.0032283	0.0053119	0.0084649	0.013088	0.019669	0.028774	0.041038	0.057137	0.077757	0.10356	0.13513	0.17293	0.21731	0.26839	0.32613	0.39027	0.46036	0.53575	0.61567	0.69919	0.78531	0.87298	0.96113	1.0487	1.1347	1.2182	1.2984	1.3744	1.4456	1.5114	1.5713	1.6248	1.6716	1.7113	1.7437	1.7686	1.7857	1.795	1.7964	1.7899	1.7755	1.7533	1.7237	1.6868	1.6432	1.5933	1.538	1.4779	1.4139	1.3468	1.2777	1.2075	1.137	1.067	0.99821	0.93136	0.86693	0.80534	0.74691	0.69186	0.64032	0.59234	0.54792	0.50697	0.46936	0.43491	0.40341	0.37465	0.34839	0.32438	0.30242	0.28227	0.26373	0.24663	0.23079	0.21609	0.20241	0.18966	0.17776	0.16667	0.15635	0.14674	0.13783	0.12956	0.12192	0.11484	0.1083	0.10225	0.096659	0.09148	0.086686	0.082248	0.078138	0.074329	0.070793	0.0675	0.064421	0.061527	0.058793	0.056195	0.053716	0.051346	0.04908	0.046916	0.044857	0.042906	0.041063	0.039331	0.037707	0.036186	0.034764	0.033433	0.032184	0.03101	0.029902	0.028852	0.027853	0.0269	0.025989	0.025119	0.024289	0.0235	0.022754	0.022051	0.021393	0.02078	0.020209	0.019677	0.019179	0.01871	0.018264	0.017836	0.017421	0.017016	0.016618	0.016227	0.01584	0.015457	0.015076	0.014695	0.014312	0.013924	0.013529
2.0137e-06	1.072e-06	5.4217e-07	2.5939e-07	1.1689e-07	4.9393e-08	1.9488e-08	7.1492e-09	2.4284e-09	7.6073e-10	2.1891e-10	5.7647e-11	1.3838e-11	3.0168e-12	5.9503e-13	1.0579e-13	1.6889e-14	2.4125e-15	3.0718e-16	3.4738e-17	3.4766e-18	3.0681e-19	2.3792e-20	1.6156e-21	9.5746e-23	4.9352e-24	2.2054e-25	8.5172e-27	2.8339e-28	8.099e-30	1.9824e-31	4.1442e-33	7.3793e-35	1.1163e-36	1.4312e-38	1.5515e-40	1.419e-42	1.0926e-44	7.0695e-47	3.837e-49	1.744e-51	6.6286e-54	2.104e-56	5.5711e-59	1.2293e-61	2.2586e-64	3.4531e-67	4.3913e-70	4.6435e-73	4.0825e-76	2.9846e-79	1.8149e-82	9.1834e-86	3.8695e-89	1.3588e-92	3.981e-96	9.7429e-100	1.9947e-103	3.4221e-107	4.9286e-111	5.9714e-115	6.0998e-119	5.2665e-123	3.8534e-127	2.3962e-131	1.2703e-135	5.7594e-140	2.246e-144	3.681e-146	2.8872e-145	2.3633e-144	2.0125e-143	1.7808e-142	1.6356e-141	1.5575e-140	1.5359e-139	1.5667e-138	1.6961e-137	3.1203e-135	1.9527e-131	1.1784e-127	6.3176e-124	2.9898e-120	1.2447e-116	4.5455e-113	1.4526e-109	4.0522e-106	9.8469e-103	2.0801e-99	3.8129e-96	6.0541e-93	8.3143e-90	9.8624e-87	1.0092e-83	8.9006e-81	6.7588e-78	4.416e-75	2.4811e-72	1.1983e-69	4.9733e-67	1.7736e-64	5.4355e-62	1.4317e-59	3.2423e-57	6.3161e-55	1.0591e-52	1.5297e-50	1.9048e-48	2.0473e-46	1.9016e-44	1.5287e-42	1.0661e-40	6.4753e-39	3.4503e-37	1.6366e-35	7.096e-34	2.9235e-32	1.1862e-30	4.7653e-29	1.8359e-27	6.484e-26	2.0272e-24	5.4992e-23	1.2828e-21	2.5666e-20	4.4076e-19	6.5143e-18	8.3162e-17	9.2088e-16	8.8863e-15	7.5096e-14	5.5865e-13	3.6782e-12	2.1555e-11	1.1308e-10	5.3425e-10	2.2871e-09	8.9262e-09	3.1958e-08	1.0559e-07	3.2387e-07	9.2714e-07	2.4897e-06	6.2998e-06	1.508e-05	3.4268e-05	7.4142e-05	0.00015314	0.00030271	0.00057386	0.0010456	0.0018349	0.0031078	0.0050899	0.0080768	0.01244	0.01863	0.027169	0.038642	0.053673	0.072898	0.096928	0.12631	0.16151	0.20282	0.25042	0.30427	0.36417	0.42972	0.50036	0.57536	0.65389	0.73502	0.81776	0.90112	0.9841	1.0657	1.1452	1.2216	1.2942	1.3623	1.4254	1.483	1.5347	1.58	1.6186	1.6504	1.6751	1.6925	1.7025	1.7051	1.7002	1.6879	1.6684	1.6418	1.6084	1.5686	1.523	1.4721	1.4167	1.3576	1.2954	1.2312	1.1657	1.0997	1.0341	0.96937	0.90625	0.84523	0.78671	0.73101	0.67838	0.62896	0.58283	0.53999	0.5004	0.46394	0.43046	0.39978	0.3717	0.34599	0.32246	0.30087	0.28103	0.26276	0.24587	0.23022	0.21568	0.20214	0.18952	0.17774	0.16676	0.15652	0.147	0.13815	0.12994	0.12234	0.11529	0.10877	0.10272	0.097125	0.09194	0.087135	0.082685	0.078561	0.074738	0.071186	0.067876	0.064779	0.061866	0.05911	0.056489	0.053987	0.051592	0.0493	0.047111	0.045027	0.043051	0.041186	0.039432	0.037789	0.036253	0.034819	0.033479	0.032226	0.031051	0.029945	0.0289	0.027909	0.026964	0.026063	0.025202	0.024381	0.023602	0.022865	0.022172	0.021524	0.02092	0.020357	0.019833	0.019342	0.018879	0.018437	0.018012	0.0176	0.017197	0.016802	0.016413	0.016029	0.015649	0.015271	0.014893	0.014512	0.014125	0.013731
2.857e-06	1.5716e-06	8.2151e-07	4.0636e-07	1.8942e-07	8.2853e-08	3.3869e-08	1.2887e-08	4.5462e-09	1.4812e-09	4.4403e-10	1.2201e-10	3.0617e-11	6.9898e-12	1.4465e-12	2.7033e-13	4.5459e-14	6.8531e-15	9.2285e-16	1.106e-16	1.1756e-17	1.1043e-18	9.1348e-20	6.6319e-21	4.2115e-22	2.3316e-23	1.1218e-24	4.6752e-26	1.6828e-27	5.2154e-29	1.3878e-30	3.162e-32	6.152e-34	1.0195e-35	1.4355e-37	1.7135e-39	1.7301e-41	1.4747e-43	1.059e-45	6.3961e-48	3.2439e-50	1.3794e-52	4.912e-55	1.463e-57	3.6409e-60	7.5653e-63	1.3116e-65	1.8965e-68	2.2863e-71	2.2978e-74	1.9254e-77	1.3455e-80	7.8443e-84	3.8182e-87	1.5529e-90	5.2827e-94	1.505e-97	3.5956e-101	7.2162e-105	1.2187e-108	1.7356e-112	2.0889e-116	2.1298e-120	1.8443e-124	1.3604e-128	8.572e-133	4.6294e-137	3.8794e-141	1.2326e-140	9.1753e-140	7.1057e-139	5.7182e-138	4.7764e-137	4.1367e-136	3.7104e-135	3.4429e-134	3.3012e-133	3.2701e-132	4.372e-131	5.0348e-128	2.4614e-124	1.103e-120	4.389e-117	1.5402e-113	4.7504e-110	1.2844e-106	3.0375e-103	6.2689e-100	1.1269e-96	1.7613e-93	2.3894e-90	2.8095e-87	2.8594e-84	2.5159e-81	1.9119e-78	1.2538e-75	7.0902e-73	3.4557e-70	1.4511e-67	5.2484e-65	1.6349e-62	4.3866e-60	1.014e-57	2.0199e-55	3.4696e-53	5.1418e-51	6.5795e-49	7.2761e-47	6.9612e-45	5.7685e-43	4.1458e-41	2.5881e-39	1.4061e-37	6.6653e-36	2.768e-34	1.0141e-32	3.3182e-31	9.8976e-30	2.7681e-28	7.4566e-27	1.9528e-25	4.8916e-24	1.1362e-22	2.3771e-21	4.3922e-20	7.0933e-19	9.9718e-18	1.22e-16	1.3016e-15	1.2149e-14	9.9618e-14	7.2093e-13	4.6279e-12	2.6492e-11	1.3599e-10	6.2964e-10	2.6449e-09	1.0142e-08	3.5708e-08	1.1614e-07	3.5096e-07	9.9061e-07	2.6249e-06	6.5589e-06	1.5516e-05	3.4873e-05	7.4688e-05	0.00015283	0.00029952	0.00056343	0.0010194	0.0017776	0.0029934	0.0048771	0.0077028	0.011814	0.017625	0.025617	0.036327	0.050329	0.068208	0.090532	0.11781	0.15048	0.18884	0.23306	0.28313	0.3389	0.40001	0.46598	0.53614	0.60973	0.6859	0.76374	0.84231	0.92068	0.99795	1.0733	1.1458	1.215	1.28	1.3404	1.3956	1.4453	1.4891	1.5266	1.5577	1.5821	1.5997	1.6104	1.6141	1.6108	1.6005	1.5835	1.5598	1.5297	1.4937	1.4522	1.4057	1.3548	1.3004	1.243	1.1835	1.1227	1.0612	0.99979	0.93912	0.87974	0.82213	0.76671	0.71381	0.66365	0.61642	0.57221	0.53104	0.49288	0.45765	0.42522	0.39542	0.36808	0.34299	0.31997	0.29882	0.27934	0.26136	0.24473	0.2293	0.21495	0.20158	0.18911	0.17747	0.16661	0.15649	0.14707	0.13831	0.13017	0.12262	0.11562	0.10912	0.1031	0.097516	0.092336	0.087532	0.083077	0.078946	0.075112	0.071547	0.068222	0.065107	0.062174	0.059396	0.056752	0.054226	0.051808	0.049493	0.04728	0.045173	0.043175	0.041289	0.039516	0.037856	0.036306	0.03486	0.033513	0.032256	0.03108	0.029977	0.028937	0.027951	0.027015	0.026122	0.025271	0.024459	0.023689	0.022962	0.022279	0.02164	0.021044	0.02049	0.019974	0.01949	0.019032	0.018595	0.018175	0.017765	0.017365	0.016972	0.016584	0.016201	0.015821	0.015443	0.015065	0.014683	0.014295	0.0139
3.9262e-06	2.2245e-06	1.1982e-06	6.1103e-07	2.9384e-07	1.3272e-07	5.6082e-08	2.2086e-08	8.0756e-09	2.7312e-09	8.5129e-10	2.4363e-10	6.3783e-11	1.522e-11	3.2984e-12	6.4679e-13	1.1434e-13	1.8159e-14	2.5812e-15	3.2725e-16	3.6873e-17	3.6797e-18	3.2412e-19	2.5112e-20	1.7058e-21	1.0126e-22	5.2357e-24	2.3509e-25	9.1386e-27	3.0665e-28	8.857e-30	2.1959e-31	4.6612e-33	8.4493e-35	1.3048e-36	1.7127e-38	1.9066e-40	1.7966e-42	1.4302e-44	9.6021e-47	5.428e-49	2.5798e-51	1.0296e-53	3.4462e-56	9.6657e-59	2.2697e-61	4.4592e-64	7.3268e-67	1.0065e-69	1.1558e-72	1.1096e-75	8.9079e-79	5.9826e-82	3.3635e-85	1.5843e-88	6.2579e-92	2.0755e-95	5.7878e-99	1.3592e-102	2.6929e-106	4.5098e-110	6.3983e-114	7.7082e-118	7.9057e-122	6.9219e-126	5.189e-130	3.3491e-134	4.619e-136	3.1077e-135	2.1913e-134	1.6056e-133	1.2211e-132	9.6289e-132	7.864e-131	6.6448e-130	5.8023e-129	5.2301e-128	4.8615e-127	4.7072e-126	1.759e-124	4.6031e-121	1.6751e-117	5.5717e-114	1.6459e-110	4.2857e-107	9.8036e-104	1.9653e-100	3.4452e-97	5.271e-94	7.0261e-91	8.1464e-88	8.2039e-85	7.1667e-82	5.4245e-79	3.5541e-76	2.014e-73	9.8643e-71	4.1737e-68	1.525e-65	4.8108e-63	1.3102e-60	3.0808e-58	6.2559e-56	1.0974e-53	1.664e-51	2.1821e-49	2.4769e-47	2.4357e-45	2.0771e-43	1.538e-41	9.9001e-40	5.5482e-38	2.7112e-36	1.1573e-34	4.3251e-33	1.4191e-31	4.1048e-30	1.0536e-28	2.4249e-27	5.0836e-26	9.9074e-25	1.8309e-23	3.2403e-22	5.4567e-21	8.5798e-20	1.2326e-18	1.5906e-17	1.8243e-16	1.8502e-15	1.6573e-14	1.3129e-13	9.2246e-13	5.7707e-12	3.2289e-11	1.624e-10	7.3816e-10	3.049e-09	1.151e-08	3.9943e-08	1.2814e-07	3.8211e-07	1.0648e-06	2.7865e-06	6.8787e-06	1.6082e-05	3.5735e-05	7.5709e-05	0.00015335	0.00029769	0.00055509	0.00099633	0.0017248	0.0028856	0.0046741	0.0073435	0.01121	0.016655	0.02412	0.034095	0.047107	0.063695	0.084381	0.10964	0.13988	0.1754	0.21636	0.26278	0.31454	0.37134	0.43275	0.49817	0.56691	0.6382	0.71118	0.785	0.85878	0.93166	1.0028	1.0716	1.1372	1.1991	1.2567	1.3095	1.3572	1.3994	1.4357	1.466	1.4901	1.5079	1.5191	1.5238	1.522	1.5137	1.499	1.4781	1.4513	1.4188	1.3812	1.3389	1.2925	1.2426	1.1898	1.1349	1.0786	1.0215	0.96435	0.90765	0.85197	0.79779	0.74549	0.69541	0.64778	0.6028	0.56056	0.52112	0.48447	0.45053	0.4192	0.39035	0.3638	0.33939	0.31694	0.29626	0.27718	0.25954	0.2432	0.22802	0.21389	0.20072	0.18843	0.17695	0.16624	0.15625	0.14695	0.13829	0.13024	0.12277	0.11582	0.10938	0.10339	0.097832	0.092669	0.087876	0.083427	0.079295	0.075456	0.07188	0.068541	0.065408	0.062454	0.059654	0.056987	0.054438	0.051998	0.049661	0.047428	0.0453	0.043283	0.041378	0.039588	0.037912	0.036348	0.034892	0.033538	0.032276	0.0311	0.029998	0.028961	0.027982	0.027052	0.026167	0.025324	0.024521	0.023759	0.02304	0.022365	0.021734	0.021147	0.0206	0.020091	0.019613	0.019161	0.01873	0.018313	0.017907	0.01751	0.017118	0.016731	0.016348	0.015967	0.015587	0.015205	0.01482	0.014429	0.014031
5.2281e-06	3.0425e-06	1.6841e-06	8.8325e-07	4.3719e-07	2.0346e-07	8.8689e-08	3.6078e-08	1.3646e-08	4.7818e-09	1.5467e-09	4.6014e-10	1.2545e-10	3.1231e-11	7.0743e-12	1.4527e-12	2.6948e-13	4.4997e-14	6.739e-15	9.0208e-16	1.0755e-16	1.1382e-17	1.0655e-18	8.7941e-20	6.3783e-21	4.0522e-22	2.248e-23	1.0856e-24	4.5497e-26	1.6502e-27	5.1649e-29	1.3913e-30	3.2169e-32	6.3689e-34	1.0771e-35	1.5524e-37	1.9029e-39	1.9798e-41	1.7449e-43	1.3006e-45	8.1857e-48	4.3436e-50	1.9408e-52	7.2942e-55	2.3035e-57	6.1077e-60	1.3588e-62	2.5353e-65	3.966e-68	5.2011e-71	5.7182e-74	5.2719e-77	4.0774e-80	2.6471e-83	1.4437e-86	6.6215e-90	2.5567e-93	8.3221e-97	2.2873e-100	5.3171e-104	1.0475e-107	1.7526e-111	2.496e-115	3.0336e-119	3.1549e-123	2.8159e-127	3.8527e-131	9.1804e-131	5.8777e-130	3.926e-129	2.722e-128	1.9567e-127	1.4568e-126	1.1221e-125	8.9327e-125	7.3413e-124	6.2219e-123	5.432e-122	4.8845e-121	5.0033e-120	9.3015e-118	2.2911e-114	6.1631e-111	1.5215e-107	3.3393e-104	6.4606e-101	1.0979e-97	1.6351e-94	2.1298e-91	2.4221e-88	2.4011e-85	2.072e-82	1.5545e-79	1.0128e-76	5.7248e-74	2.8053e-71	1.191e-68	4.3783e-66	1.3933e-63	3.8373e-61	9.146e-59	1.8867e-56	3.3694e-54	5.2112e-52	6.9835e-50	8.1142e-48	8.1808e-46	7.1632e-44	5.453e-42	3.6131e-40	2.0864e-38	1.0514e-36	4.6314e-35	1.7861e-33	6.0414e-32	1.7961e-30	4.7045e-29	1.0891e-27	2.2377e-26	4.1057e-25	6.7867e-24	1.0232e-22	1.4282e-21	1.8727e-20	2.3268e-19	2.736e-18	3.0136e-17	3.065e-16	2.841e-15	2.3777e-14	1.7877e-13	1.2054e-12	7.2947e-12	3.9713e-11	1.9519e-10	8.6988e-10	3.5316e-09	1.3129e-08	4.4923e-08	1.4223e-07	4.1886e-07	1.153e-06	2.981e-06	7.2706e-06	1.6796e-05	3.6884e-05	7.7249e-05	0.00015475	0.00029728	0.00054895	0.00097651	0.0016768	0.0027847	0.0044811	0.0069994	0.01063	0.015722	0.022678	0.031947	0.044012	0.059363	0.078483	0.10181	0.12973	0.16252	0.20036	0.24328	0.29117	0.3438	0.40078	0.46158	0.52559	0.59209	0.6603	0.72943	0.79865	0.86718	0.93425	0.99916	1.0613	1.1199	1.1747	1.2251	1.2707	1.3113	1.3464	1.3759	1.3996	1.4174	1.4291	1.4347	1.4343	1.4278	1.4154	1.3971	1.3734	1.3443	1.3105	1.2722	1.23	1.1844	1.1361	1.0857	1.0338	0.98099	0.92792	0.87514	0.82313	0.77235	0.72318	0.67594	0.63087	0.58818	0.54797	0.51031	0.4752	0.44261	0.41245	0.38459	0.35889	0.33521	0.31336	0.2932	0.27457	0.2573	0.24129	0.22639	0.21251	0.19956	0.18747	0.17618	0.16564	0.1558	0.14664	0.1381	0.13016	0.12277	0.11591	0.10952	0.10359	0.098069	0.092937	0.088167	0.083731	0.079606	0.075766	0.072184	0.068831	0.065681	0.062707	0.059885	0.057196	0.054625	0.052164	0.049808	0.047557	0.045412	0.043377	0.041456	0.03965	0.037961	0.036385	0.034919	0.033557	0.032291	0.031113	0.030011	0.028977	0.028002	0.027078	0.026199	0.025362	0.024566	0.023811	0.023098	0.022429	0.021805	0.021223	0.020683	0.020179	0.019707	0.01926	0.018834	0.018422	0.01802	0.017625	0.017235	0.016849	0.016464	0.016081	0.015697	0.015311	0.014922	0.014527	0.014125
6.7523e-06	4.0262e-06	2.285e-06	1.2297e-06	6.2515e-07	2.9916e-07	1.3426e-07	5.6309e-08	2.199e-08	7.9686e-09	2.6698e-09	8.2412e-10	2.3354e-10	6.0543e-11	1.4307e-11	3.0709e-12	5.966e-13	1.0454e-13	1.6465e-14	2.3226e-15	2.9245e-16	3.2758e-17	3.2533e-18	2.8551e-19	2.207e-20	1.498e-21	8.8997e-23	4.6141e-24	2.0814e-25	8.146e-27	2.7584e-28	8.0595e-30	2.0267e-31	4.3757e-33	8.0918e-35	1.2788e-36	1.7236e-38	1.9772e-40	1.9268e-42	1.5926e-44	1.1146e-46	6.5956e-49	3.296e-51	1.3894e-53	4.9358e-56	1.4764e-58	3.7163e-61	7.8681e-64	1.4007e-66	2.0964e-69	2.638e-72	2.7917e-75	2.4854e-78	1.8627e-81	1.1761e-84	6.2614e-88	2.8143e-91	1.0693e-94	3.4395e-98	9.383e-102	2.1749e-105	4.2924e-109	7.2295e-113	1.0417e-116	1.2875e-120	1.3913e-124	2.6935e-126	1.3722e-125	8.3276e-125	5.27e-124	3.458e-123	2.3498e-122	1.652e-121	1.2003e-120	9.0043e-120	6.9662e-119	5.5523e-118	4.5542e-117	3.8406e-116	3.3563e-115	5.4929e-114	3.3372e-111	6.1998e-108	1.2294e-104	2.2533e-101	3.6796e-98	5.2995e-95	6.7063e-92	7.4393e-89	7.2212e-86	6.1239e-83	4.531e-80	2.9213e-77	1.6394e-74	8.0013e-72	3.3934e-69	1.2498e-66	3.9959e-64	1.1086e-61	2.6684e-59	5.5723e-57	1.0096e-54	1.5877e-52	2.1676e-50	2.5707e-48	2.6501e-46	2.3765e-44	1.8556e-42	1.2628e-40	7.499e-39	3.8907e-37	1.7661e-35	7.0244e-34	2.452e-32	7.525e-31	2.0341e-29	4.8533e-28	1.0244e-26	1.9183e-25	3.197e-24	4.7628e-23	6.3795e-22	7.7425e-21	8.5988e-20	8.8386e-19	8.499e-18	7.6996e-17	6.5782e-16	5.2731e-15	3.9319e-14	2.7031e-13	1.7013e-12	9.7615e-12	5.0976e-11	2.4239e-10	1.0516e-09	4.1757e-09	1.5233e-08	5.127e-08	1.5993e-07	4.6451e-07	1.2619e-06	3.2207e-06	7.7555e-06	1.769e-05	3.8363e-05	7.936e-05	0.00015709	0.00029835	0.00054504	0.00095997	0.0016335	0.0026907	0.0042984	0.0066707	0.010074	0.014825	0.021293	0.029887	0.041045	0.055217	0.072845	0.094337	0.12004	0.15024	0.18509	0.22465	0.26884	0.31745	0.37016	0.42649	0.4859	0.54772	0.61127	0.67579	0.74054	0.80477	0.86776	0.92886	0.98744	1.043	1.0949	1.1428	1.1863	1.2252	1.259	1.2877	1.3109	1.3286	1.3408	1.3472	1.3481	1.3432	1.3329	1.3172	1.2963	1.2705	1.2402	1.2057	1.1675	1.1262	1.0822	1.036	0.98838	0.93977	0.89073	0.84178	0.79339	0.74598	0.69992	0.65552	0.61303	0.57265	0.5345	0.49866	0.46516	0.43396	0.405	0.37818	0.35338	0.33046	0.30927	0.28967	0.27151	0.25466	0.239	0.22442	0.21082	0.19812	0.18625	0.17517	0.16481	0.15515	0.14614	0.13774	0.12992	0.12264	0.11586	0.10956	0.10369	0.098225	0.093137	0.088399	0.083987	0.079875	0.076039	0.072453	0.069089	0.065923	0.06293	0.060088	0.057378	0.054788	0.052309	0.049937	0.04767	0.045511	0.043462	0.041527	0.039709	0.038007	0.03642	0.034945	0.033576	0.032305	0.031124	0.030021	0.028988	0.028015	0.027094	0.026219	0.025387	0.024595	0.023845	0.023137	0.022472	0.021851	0.021274	0.020737	0.020237	0.019769	0.019327	0.018905	0.018497	0.018099	0.017708	0.01732	0.016933	0.016548	0.016161	0.015774	0.015383	0.014989	0.01459	0.014184
8.4693e-06	5.1628e-06	2.9977e-06	1.652e-06	8.6092e-07	4.2282e-07	1.95e-07	8.4161e-08	3.3874e-08	1.267e-08	4.3889e-09	1.4031e-09	4.125e-10	1.1114e-10	2.7348e-11	6.1241e-12	1.2437e-12	2.2827e-13	3.7735e-14	5.599e-15	7.4316e-16	8.7944e-17	9.248e-18	8.6138e-19	7.0837e-20	5.1273e-21	3.2564e-22	1.8094e-23	8.7696e-25	3.6972e-26	1.3521e-27	4.2782e-29	1.1682e-30	2.7461e-32	5.5444e-34	9.5934e-36	1.4196e-37	1.793e-39	1.9295e-41	1.766e-43	1.3727e-45	9.0481e-48	5.0513e-50	2.3858e-52	9.5239e-55	3.2108e-57	9.136e-60	2.193e-62	4.4392e-65	7.5774e-68	1.0907e-70	1.3241e-73	1.3563e-76	1.1729e-79	8.5698e-83	5.295e-86	2.7698e-89	1.2282e-92	4.6236e-96	1.4802e-99	4.037e-103	9.4e-107	1.8727e-110	3.2e-114	4.7135e-118	3.3116e-121	3.1837e-121	1.5347e-120	8.8284e-120	5.2942e-119	3.2883e-118	2.1128e-117	1.403e-116	9.6182e-116	6.8005e-115	4.9539e-114	3.7142e-113	2.863e-112	2.2666e-111	1.8431e-110	1.6469e-109	8.4745e-108	6.799e-105	9.1625e-102	1.3359e-98	1.8187e-95	2.2135e-92	2.3791e-89	2.2483e-86	1.8637e-83	1.3529e-80	8.5885e-78	4.7622e-75	2.304e-72	9.7174e-70	3.5702e-67	1.1419e-64	3.1784e-62	7.696e-60	1.6208e-57	2.9691e-55	4.731e-53	6.5594e-51	7.9161e-49	8.32e-47	7.6206e-45	6.0875e-43	4.2449e-41	2.5866e-39	1.3788e-37	6.4379e-36	2.6367e-34	9.4857e-33	3.0025e-31	8.376e-30	2.0631e-28	4.4956e-27	8.6843e-26	1.4907e-24	2.2795e-23	3.1145e-22	3.8159e-21	4.211e-20	4.209e-19	3.8371e-18	3.217e-17	2.5026e-16	1.8212e-15	1.2467e-14	8.0417e-14	4.8765e-13	2.7665e-12	1.4602e-11	7.1369e-11	3.2209e-10	1.3405e-09	5.148e-09	1.8273e-08	6.0104e-08	1.8381e-07	5.2451e-07	1.402e-06	3.5243e-06	8.3634e-06	1.8808e-05	4.0225e-05	8.21e-05	0.00016041	0.0003009	0.00054331	0.00094658	0.0015948	0.0026035	0.0041257	0.0063576	0.0095413	0.013967	0.019967	0.027915	0.03821	0.05126	0.067471	0.087217	0.11083	0.13855	0.17056	0.20692	0.24757	0.29234	0.34094	0.39297	0.44793	0.50523	0.56424	0.62427	0.68463	0.74463	0.80362	0.86095	0.91605	0.96839	1.0175	1.0629	1.1044	1.1415	1.174	1.2017	1.2244	1.2421	1.2545	1.2617	1.2636	1.2604	1.252	1.2386	1.2204	1.1977	1.1708	1.1399	1.1055	1.0682	1.0282	0.98622	0.94267	0.89809	0.85296	0.80776	0.76291	0.71883	0.67585	0.63429	0.59438	0.55632	0.52025	0.48626	0.45439	0.42462	0.3969	0.37116	0.34729	0.32517	0.30468	0.28567	0.26803	0.25162	0.23635	0.22211	0.20882	0.19639	0.18478	0.17392	0.16377	0.15429	0.14545	0.1372	0.12952	0.12236	0.11569	0.10948	0.10369	0.098295	0.093262	0.088568	0.084187	0.080095	0.076268	0.072681	0.06931	0.066131	0.063121	0.06026	0.057533	0.054927	0.052434	0.050048	0.04777	0.0456	0.043541	0.041596	0.039767	0.038055	0.036459	0.034976	0.0336	0.032324	0.031138	0.030034	0.028999	0.028026	0.027106	0.026233	0.025403	0.024614	0.023866	0.02316	0.022497	0.021877	0.021301	0.020766	0.020268	0.019802	0.019363	0.018944	0.01854	0.018146	0.017758	0.017372	0.016986	0.016599	0.016211	0.015819	0.015425	0.015026	0.014623	0.014216
1.0331e-05	6.4253e-06	3.8095e-06	2.1456e-06	1.1441e-06	5.7562e-07	2.7231e-07	1.2073e-07	4.9987e-08	1.9264e-08	6.8866e-09	2.2758e-09	6.9286e-10	1.9366e-10	4.9526e-11	1.1548e-11	2.447e-12	4.6953e-13	8.1313e-14	1.2666e-14	1.7689e-15	2.2073e-16	2.4532e-17	2.4205e-18	2.1138e-19	1.6286e-20	1.1038e-21	6.5608e-23	3.4105e-24	1.5462e-25	6.0968e-27	2.0855e-28	6.1733e-30	1.5775e-31	3.4719e-33	6.5671e-35	1.0654e-36	1.4795e-38	1.7555e-40	1.7769e-42	1.532e-44	1.1234e-46	6.9977e-49	3.6989e-51	1.6575e-53	6.2915e-56	2.0217e-58	5.4968e-61	1.2642e-63	2.4592e-66	4.0459e-69	5.6311e-72	6.6326e-75	6.615e-78	5.5905e-81	4.0072e-84	2.4387e-87	1.2618e-90	5.558e-94	2.0878e-97	6.7002e-101	1.8407e-104	4.3382e-108	8.7976e-112	2.5094e-115	2.4537e-116	2.8265e-116	1.2832e-115	6.9976e-115	3.9774e-114	2.3391e-113	1.4214e-112	8.9176e-112	5.7698e-111	3.8462e-110	2.639e-109	1.8618e-108	1.3491e-107	1.0031e-106	7.6469e-106	6.0219e-105	7.0958e-104	1.1632e-101	7.71e-99	7.4484e-96	7.9583e-93	8.0505e-90	7.3183e-87	5.887e-84	4.1686e-81	2.5919e-78	1.4129e-75	6.7434e-73	2.8152e-70	1.0271e-67	3.2723e-65	9.0993e-63	2.2074e-60	4.6704e-58	8.6171e-56	1.3864e-53	1.9454e-51	2.3814e-49	2.5441e-47	2.3731e-45	1.9342e-43	1.3784e-41	8.598e-40	4.6985e-38	2.252e-36	9.4791e-35	3.5087e-33	1.1438e-31	3.2888e-30	8.3552e-29	1.8788e-27	3.7466e-26	6.6389e-25	1.0476e-23	1.4755e-22	1.8598e-21	2.1036e-20	2.1422e-19	1.9717e-18	1.6477e-17	1.257e-16	8.8112e-16	5.7153e-15	3.4556e-14	1.9599e-13	1.0474e-12	5.2824e-12	2.5121e-11	1.1234e-10	4.7095e-10	1.8454e-09	6.7477e-09	2.3009e-08	7.3219e-08	2.1776e-07	6.0669e-07	1.5878e-06	3.916e-06	9.1311e-06	2.0198e-05	4.2529e-05	8.5516e-05	0.00016473	0.00030487	0.00054359	0.00093604	0.0015602	0.0025224	0.0039626	0.0060596	0.0090333	0.013146	0.018701	0.026035	0.035509	0.047497	0.062366	0.080461	0.10208	0.12747	0.15679	0.19011	0.2274	0.2685	0.31318	0.36108	0.41176	0.4647	0.51931	0.57498	0.63108	0.68696	0.74201	0.79565	0.84732	0.89652	0.94281	0.98579	1.0251	1.0605	1.0916	1.1183	1.1405	1.1579	1.1706	1.1784	1.1814	1.1795	1.1729	1.1617	1.1461	1.1262	1.1024	1.0749	1.0442	1.0106	0.97454	0.93648	0.89687	0.85616	0.81482	0.77325	0.73188	0.69106	0.65112	0.61236	0.57501	0.53928	0.5053	0.47318	0.44296	0.41464	0.3882	0.36357	0.34067	0.31939	0.29961	0.28123	0.26414	0.24821	0.23336	0.21949	0.20652	0.1944	0.18305	0.17243	0.16251	0.15324	0.14458	0.1365	0.12897	0.12195	0.1154	0.10929	0.1036	0.098276	0.093308	0.088665	0.084323	0.080257	0.076445	0.072862	0.069487	0.066298	0.063275	0.060401	0.05766	0.055041	0.052537	0.050144	0.047858	0.045681	0.043616	0.041664	0.039828	0.038109	0.036506	0.035016	0.033634	0.032352	0.031162	0.030053	0.029016	0.028041	0.02712	0.026247	0.025417	0.024628	0.023879	0.023173	0.022509	0.021888	0.021311	0.020774	0.020276	0.019811	0.019373	0.018957	0.018556	0.018165	0.017779	0.017395	0.01701	0.016623	0.016233	0.015839	0.015442	0.015041	0.014636	0.014227
1.2275e-05	7.7738e-06	4.6974e-06	2.6992e-06	1.47e-06	7.5631e-07	3.6636e-07	1.6654e-07	7.0811e-08	2.8067e-08	1.0336e-08	3.5243e-09	1.109e-09	3.2098e-10	8.5152e-11	2.0637e-11	4.5536e-12	9.1175e-13	1.651e-13	2.6949e-14	3.9522e-15	5.1906e-16	6.0856e-17	6.3493e-18	5.8768e-19	4.8109e-20	3.473e-21	2.2045e-22	1.2269e-23	5.971e-25	2.5342e-26	9.3557e-28	2.9971e-29	8.3117e-31	1.9909e-32	4.1103e-34	7.2991e-36	1.1128e-37	1.4539e-39	1.6253e-41	1.5521e-43	1.2645e-45	8.778e-48	5.1865e-50	2.6059e-52	1.1125e-54	4.0329e-57	1.2409e-59	3.2395e-62	7.1749e-65	1.3482e-67	2.1496e-70	2.9095e-73	3.3445e-76	3.2677e-79	2.7158e-82	1.9222e-85	1.16e-88	5.9773e-92	2.6341e-95	9.9452e-99	3.2233e-102	8.9886e-106	2.456e-109	6.2639e-111	1.6518e-111	1.875e-111	8.0167e-111	4.1448e-110	2.2336e-109	1.2441e-108	7.1528e-108	4.241e-107	2.5906e-106	1.6287e-105	1.0529e-104	6.9923e-104	4.7651e-103	3.329e-102	2.3819e-101	1.7458e-100	1.3831e-99	3.6506e-98	9.9319e-96	4.8904e-93	3.3626e-90	2.6213e-87	1.97e-84	1.3405e-81	8.0972e-79	4.3129e-76	2.0201e-73	8.3063e-71	2.9951e-68	9.4624e-66	2.6173e-63	6.3347e-61	1.3411e-58	2.4825e-56	4.0179e-54	5.6858e-52	7.0356e-50	7.6149e-48	7.2119e-46	5.9798e-44	4.3437e-42	2.7663e-40	1.546e-38	7.5892e-37	3.2763e-35	1.2454e-33	4.1737e-32	1.235e-30	3.2318e-29	7.4912e-28	1.5408e-26	2.8174e-25	4.5887e-24	6.6712e-23	8.6763e-22	1.0118e-20	1.0608e-19	1.0027e-18	8.5708e-18	6.6489e-17	4.7003e-16	3.0423e-15	1.8127e-14	1.0002e-13	5.1433e-13	2.4797e-12	1.1265e-11	4.8392e-11	1.9683e-10	7.5783e-10	2.7579e-09	9.4694e-09	3.0629e-08	9.3249e-08	2.6722e-07	7.2137e-07	1.8373e-06	4.4246e-06	1.01e-05	2.1913e-05	4.5325e-05	8.9642e-05	0.00017002	0.00031015	0.0005456	0.00092789	0.0015291	0.0024466	0.0038083	0.0057761	0.0085491	0.012365	0.017496	0.024247	0.032946	0.043929	0.057532	0.07407	0.093821	0.11701	0.14379	0.17423	0.20833	0.24596	0.2869	0.33087	0.37745	0.4262	0.47658	0.52804	0.58	0.63188	0.6831	0.73312	0.78143	0.82756	0.87107	0.9116	0.94881	0.98241	1.0122	1.0379	1.0594	1.0766	1.0894	1.0977	1.1015	1.101	1.096	1.0868	1.0735	1.0563	1.0354	1.0111	0.98381	0.95376	0.92137	0.88704	0.85119	0.8142	0.77649	0.73845	0.70044	0.6628	0.62585	0.58985	0.55505	0.52163	0.48974	0.45949	0.43093	0.40409	0.37895	0.35545	0.33354	0.31312	0.2941	0.27638	0.25985	0.24443	0.23003	0.21655	0.20394	0.19214	0.18108	0.17073	0.16104	0.15199	0.14353	0.13564	0.12827	0.1214	0.11498	0.10899	0.1034	0.098164	0.09327	0.088686	0.084389	0.080355	0.076562	0.072989	0.069615	0.066421	0.06339	0.060506	0.057757	0.055131	0.052622	0.050224	0.047936	0.045758	0.04369	0.041736	0.039897	0.038174	0.036566	0.035071	0.033683	0.032396	0.0312	0.030086	0.029045	0.028066	0.027142	0.026265	0.025433	0.024641	0.023891	0.023181	0.022515	0.021891	0.02131	0.020771	0.02027	0.019804	0.019366	0.01895	0.018551	0.018162	0.017778	0.017396	0.017012	0.016626	0.016235	0.015841	0.015442	0.01504	0.014635	0.014226
1.4224e-05	9.1571e-06	5.6296e-06	3.2945e-06	1.8294e-06	9.608e-07	4.7574e-07	2.2136e-07	9.648e-08	3.9259e-08	1.4866e-08	5.2209e-09	1.695e-09	5.0704e-10	1.3928e-10	3.5018e-11	8.0315e-12	1.6749e-12	3.1653e-13	5.4038e-14	8.3066e-15	1.1461e-15	1.4148e-16	1.5579e-17	1.5256e-18	1.3245e-19	1.0166e-20	6.8785e-22	4.0914e-23	2.1336e-24	9.7298e-26	3.8702e-27	1.3395e-28	4.0249e-30	1.0476e-31	2.3569e-33	4.5743e-35	7.6446e-37	1.0981e-38	1.3538e-40	1.43e-42	1.2927e-44	9.9875e-47	6.5882e-49	3.7071e-51	1.7779e-53	7.263e-56	2.5262e-58	7.479e-61	1.8843e-63	4.0403e-66	7.3742e-69	1.146e-71	1.5174e-74	1.7128e-77	1.6498e-80	1.3573e-83	9.5496e-87	5.7541e-90	2.9739e-93	1.3206e-96	5.049e-100	1.7283e-103	1.3873e-105	2.9676e-106	8.3063e-107	9.2911e-107	3.7415e-106	1.8343e-105	9.375e-105	4.9473e-104	2.692e-103	1.5091e-102	8.7061e-102	5.1645e-101	3.1471e-100	1.9681e-99	1.2618e-98	8.2865e-98	5.5681e-97	3.8254e-96	2.7057e-95	2.5502e-94	1.8338e-92	4.8676e-90	1.752e-87	8.5316e-85	4.8249e-82	2.6909e-79	1.3733e-76	6.2508e-74	2.5152e-71	8.9157e-69	2.7795e-66	7.6122e-64	1.8301e-61	3.8602e-59	7.1407e-57	1.1581e-54	1.6465e-52	2.0523e-50	2.2428e-48	2.1496e-46	1.8077e-44	1.3344e-42	8.6531e-41	4.9327e-39	2.4741e-37	1.093e-35	4.2574e-34	1.464e-32	4.4504e-31	1.1976e-29	2.8575e-28	6.0547e-27	1.1413e-25	1.9173e-24	2.876e-23	3.8602e-22	4.6458e-21	5.0249e-20	4.8962e-19	4.3091e-18	3.4349e-17	2.4877e-16	1.6425e-15	9.925e-15	5.5121e-14	2.8274e-13	1.3466e-12	5.988e-12	2.5001e-11	9.8502e-11	3.6766e-10	1.3034e-09	4.3932e-09	1.4078e-08	4.2855e-08	1.238e-07	3.3917e-07	8.8104e-07	2.1711e-06	5.0807e-06	1.131e-05	2.3997e-05	4.865e-05	9.4479e-05	0.00017623	0.00031655	0.000549	0.00092156	0.0015006	0.0023753	0.0036616	0.005506	0.0080881	0.011621	0.016352	0.022553	0.030521	0.040559	0.052973	0.068048	0.08604	0.10716	0.13155	0.15929	0.19038	0.22471	0.26212	0.30234	0.34503	0.38977	0.4361	0.48352	0.5315	0.57951	0.62702	0.67353	0.71856	0.76166	0.80245	0.84057	0.87568	0.90754	0.93589	0.96056	0.98138	0.99824	1.0111	1.0198	1.0244	1.025	1.0215	1.0141	1.003	0.9882	0.97003	0.94873	0.92457	0.89785	0.86892	0.83813	0.80583	0.77239	0.73817	0.70351	0.66876	0.63421	0.60017	0.56688	0.53458	0.50345	0.47364	0.44526	0.41837	0.39302	0.36918	0.34684	0.32594	0.30641	0.28817	0.27113	0.2552	0.24031	0.22637	0.21332	0.20109	0.18962	0.17888	0.16881	0.15938	0.15056	0.14232	0.13462	0.12743	0.12071	0.11444	0.10857	0.10309	0.097955	0.093141	0.088623	0.084377	0.08038	0.076613	0.073055	0.069688	0.066496	0.063463	0.060576	0.057824	0.055197	0.052688	0.050292	0.048007	0.045832	0.043767	0.041815	0.039977	0.038253	0.036643	0.035144	0.033752	0.03246	0.031258	0.030139	0.029091	0.028106	0.027176	0.026295	0.025458	0.024662	0.023907	0.023193	0.022521	0.021893	0.021307	0.020764	0.020259	0.019789	0.019349	0.018933	0.018533	0.018145	0.017763	0.017382	0.017	0.016615	0.016226	0.015832	0.015434	0.015033	0.014628	0.014222
1.6099e-05	1.0517e-05	6.5669e-06	3.9074e-06	2.2085e-06	1.1821e-06	5.9726e-07	2.8397e-07	1.2665e-07	5.2817e-08	2.0528e-08	7.4124e-09	2.4784e-09	7.6484e-10	2.1714e-10	5.6531e-11	1.3452e-11	2.9162e-12	5.7413e-13	1.0232e-13	1.6456e-14	2.3807e-15	3.0887e-16	3.583e-17	3.705e-18	3.4053e-19	2.7739e-20	1.997e-21	1.2672e-22	7.069e-24	3.4576e-25	1.4792e-26	5.5223e-28	1.7948e-29	5.0677e-31	1.2405e-32	2.6272e-34	4.8055e-36	7.5783e-38	1.0288e-39	1.2004e-41	1.2023e-43	1.0325e-45	7.5938e-48	4.7792e-50	2.5719e-52	1.1827e-54	4.6451e-57	1.5578e-59	4.4604e-62	1.0904e-64	2.276e-67	4.0582e-70	6.1841e-73	8.0592e-76	8.9898e-79	8.5919e-82	7.0442e-85	4.9609e-88	3.0057e-91	1.5694e-94	7.1694e-98	2.3137e-100	4.5392e-101	1.0571e-101	3.1173e-102	3.439e-102	1.3046e-101	6.066e-101	2.9413e-100	1.4712e-99	7.5797e-99	4.0188e-98	2.1907e-97	1.2267e-96	7.0494e-96	4.1534e-95	2.5066e-94	1.5481e-93	9.7743e-93	6.3035e-92	4.1532e-91	2.9108e-90	4.7425e-89	6.2251e-87	1.357e-84	3.584e-82	1.2339e-79	5.0282e-77	2.0758e-74	7.9569e-72	2.7384e-69	8.3611e-67	2.2545e-64	5.3576e-62	1.1209e-59	2.0631e-57	3.3392e-55	4.7514e-53	5.943e-51	6.5343e-49	6.3164e-47	5.3695e-45	4.0158e-43	2.6437e-41	1.533e-39	7.8355e-38	3.5334e-36	1.4072e-34	4.9547e-33	1.5442e-31	4.2659e-30	1.046e-28	2.2798e-27	4.4244e-26	7.6578e-25	1.1842e-23	1.6394e-22	2.0356e-21	2.2718e-20	2.2838e-19	2.0729e-18	1.703e-17	1.2696e-16	8.6138e-16	5.3348e-15	3.0262e-14	1.5782e-13	7.5974e-13	3.3915e-12	1.4108e-11	5.4965e-11	2.0161e-10	6.9954e-10	2.3054e-09	7.2374e-09	2.1683e-08	6.2038e-08	1.6949e-07	4.4201e-07	1.0998e-06	2.6106e-06	5.9139e-06	1.2797e-05	2.6484e-05	5.252e-05	9.9996e-05	0.00018322	0.00032381	0.00055334	0.00091638	0.001474	0.0023073	0.0035214	0.0052481	0.007649	0.010915	0.015268	0.020953	0.028234	0.037387	0.048687	0.062393	0.07874	0.09792	0.12007	0.14528	0.17354	0.20478	0.23885	0.27553	0.31452	0.35546	0.39792	0.44148	0.48563	0.52992	0.57385	0.61696	0.6588	0.69898	0.7371	0.77284	0.80589	0.836	0.86294	0.88653	0.90662	0.92309	0.93587	0.94491	0.9502	0.95174	0.94961	0.94387	0.93467	0.92214	0.90649	0.88793	0.86671	0.84311	0.81742	0.78995	0.76101	0.73093	0.70003	0.66861	0.63698	0.60542	0.57419	0.54355	0.5137	0.48482	0.45706	0.43054	0.40532	0.38145	0.35894	0.33777	0.3179	0.29927	0.28183	0.26549	0.25019	0.23585	0.22241	0.2098	0.19797	0.18686	0.17645	0.16668	0.15753	0.14896	0.14094	0.13345	0.12644	0.1199	0.11377	0.10805	0.10268	0.097646	0.092919	0.088471	0.084281	0.080328	0.076592	0.073056	0.069703	0.06652	0.063493	0.060611	0.057863	0.055241	0.052739	0.050351	0.048074	0.045907	0.043851	0.041905	0.040072	0.038351	0.036742	0.035242	0.033846	0.032549	0.031341	0.030214	0.029159	0.028167	0.02723	0.026341	0.025497	0.024695	0.023934	0.023214	0.022536	0.021902	0.02131	0.02076	0.020251	0.019776	0.019333	0.018913	0.018512	0.018124	0.017742	0.017362	0.016982	0.016598	0.016211	0.015819	0.015424	0.015025	0.014623	0.014219
1.7817e-05	1.1791e-05	7.4661e-06	4.5094e-06	2.5901e-06	1.4105e-06	7.2604e-07	3.5215e-07	1.6044e-07	6.8451e-08	2.7261e-08	1.0102e-08	3.4724e-09	1.1035e-09	3.2322e-10	8.6975e-11	2.1433e-11	4.8214e-12	9.8699e-13	1.8329e-13	3.0783e-14	4.661e-15	6.344e-16	7.7383e-17	8.4346e-18	8.1917e-19	7.0689e-20	5.4053e-21	3.6526e-22	2.1757e-23	1.1394e-24	5.2341e-26	2.104e-27	7.3844e-29	2.2581e-30	6.0039e-32	1.3854e-33	2.7692e-35	4.7869e-37	7.1451e-39	9.1956e-41	1.0191e-42	9.7137e-45	7.9553e-47	5.5929e-49	3.3729e-51	1.7438e-53	7.7252e-56	2.9317e-58	9.5293e-61	2.653e-63	6.3276e-66	1.2933e-68	2.2662e-71	3.4071e-74	4.3982e-77	4.88e-80	4.6592e-83	3.833e-86	2.7211e-89	1.6796e-92	3.0494e-95	4.91e-96	1.1483e-96	2.8123e-97	8.7334e-98	9.5114e-98	3.3998e-97	1.4995e-96	6.901e-96	3.2731e-95	1.5974e-94	8.0146e-94	4.1301e-93	2.1841e-92	1.1842e-91	6.5771e-91	3.7383e-90	2.1724e-89	1.2896e-88	7.8124e-88	4.8264e-87	3.0575e-86	2.3513e-85	8.5161e-84	1.2516e-81	2.1614e-79	4.2335e-77	1.0334e-74	3.0142e-72	9.1706e-70	2.6408e-67	6.8932e-65	1.6043e-62	3.308e-60	6.0272e-58	9.6914e-56	1.3743e-53	1.7182e-51	1.8935e-49	1.8394e-47	1.5752e-45	1.1897e-43	7.9264e-42	4.6614e-40	2.4213e-38	1.1117e-36	4.5153e-35	1.6241e-33	5.1785e-32	1.4656e-30	3.6862e-29	8.251e-28	1.6461e-26	2.9315e-25	4.6683e-24	6.659e-23	8.5242e-22	9.8114e-21	1.0175e-19	9.5273e-19	8.0729e-18	6.2049e-17	4.3369e-16	2.7638e-15	1.6105e-14	8.6078e-14	4.2339e-13	1.9236e-12	8.1042e-12	3.18e-11	1.1675e-10	4.0303e-10	1.3143e-09	4.0674e-09	1.1992e-08	3.379e-08	9.1174e-08	2.3585e-07	5.8513e-07	1.3922e-06	3.1764e-06	6.9494e-06	1.4585e-05	2.9388e-05	5.6918e-05	0.00010612	0.00019084	0.00033164	0.00055816	0.00091168	0.0014482	0.0022414	0.0033861	0.005001	0.0072303	0.010245	0.014243	0.019444	0.026084	0.034412	0.044673	0.057103	0.071916	0.089289	0.10935	0.13219	0.1578	0.18614	0.21709	0.25044	0.28594	0.32327	0.36207	0.40194	0.44245	0.48317	0.52366	0.56349	0.60226	0.63959	0.67512	0.70853	0.73956	0.76793	0.79346	0.81595	0.83527	0.8513	0.86397	0.87322	0.87904	0.88145	0.88049	0.87624	0.86881	0.85833	0.84497	0.82894	0.81045	0.78973	0.76705	0.74268	0.7169	0.68999	0.66222	0.63388	0.60523	0.57654	0.54803	0.51995	0.49248	0.46581	0.44007	0.41538	0.39182	0.36944	0.34825	0.32826	0.30943	0.29173	0.27511	0.2595	0.24484	0.23108	0.21815	0.206	0.19459	0.18387	0.1738	0.16435	0.15548	0.14718	0.1394	0.13213	0.12532	0.11895	0.11299	0.1074	0.10216	0.097234	0.092597	0.088225	0.084097	0.080193	0.076495	0.072988	0.069657	0.066492	0.063479	0.06061	0.057875	0.055266	0.052777	0.050404	0.048141	0.045989	0.043945	0.042011	0.040186	0.038472	0.036866	0.035367	0.033969	0.032667	0.031453	0.030319	0.029255	0.028253	0.027306	0.026409	0.025556	0.024746	0.023977	0.02325	0.022565	0.021923	0.021324	0.020768	0.020252	0.019772	0.019323	0.0189	0.018496	0.018105	0.017722	0.017343	0.016964	0.016582	0.016197	0.015809	0.015417	0.015021	0.014623	0.014222
