2.8797e-32	3.2818e-34	3.3292e-36	3.0664e-38	2.5615e-40	1.9164e-42	1.6346e-44	9.3289e-46	1.6301e-46	2.7731e-47	4.2863e-48	5.9992e-49	7.5896e-50	8.6635e-51	8.9064e-52	8.2308e-53	6.8246e-54	5.0671e-55	3.3624e-56	1.99e-57	1.0483e-58	4.9059e-60	2.0352e-61	7.4693e-63	2.4202e-64	6.9117e-66	2.0555e-67	3.2651e-67	3.0543e-66	2.727e-65	2.2975e-64	1.827e-63	1.3718e-62	9.7283e-62	6.5183e-61	4.1278e-60	2.4715e-59	1.3996e-58	7.4994e-58	3.8034e-57	1.8265e-56	8.3084e-56	3.5813e-55	1.4634e-54	5.6705e-54	2.0845e-53	7.2724e-53	2.4087e-52	7.5768e-52	2.2644e-51	6.4316e-51	1.7368e-50	4.4603e-50	1.0897e-49	2.5372e-49	6.805e-49	3.4472e-47	7.5027e-45	1.3733e-42	2.0501e-40	2.504e-38	2.5112e-36	2.0756e-34	1.4195e-32	8.064e-31	3.8217e-29	1.5177e-27	5.0738e-26	1.4352e-24	3.4539e-23	7.1145e-22	1.2627e-20	1.9453e-19	2.6211e-18	3.1132e-17	3.2827e-16	3.0915e-15	2.6113e-14	1.9833e-13	1.356e-12	8.3484e-12	4.6293e-11	2.3137e-10	1.0436e-09	4.258e-09	1.5761e-08	5.3121e-08	1.6373e-07	4.6372e-07	1.2132e-06	2.9481e-06	6.6938e-06	1.4287e-05	2.8836e-05	5.5366e-05	0.00010169	0.00017961	0.00030643	0.000507	0.00081623	0.0012822	0.0019699	0.0029653	0.0043806	0.0063591	0.0090814	0.012771	0.017702	0.024202	0.03266	0.04353	0.057325	0.074615	0.096011	0.12214	0.15362	0.19102	0.23481	0.28535	0.34282	0.4072	0.47827	0.5556	0.63851	0.72618	0.81757	0.91154	1.0068	1.1022	1.1962	1.2877	1.3755	1.4583	1.5354	1.6057	1.6687	1.7238	1.7704	1.8084	1.8375	1.8575	1.8683	1.8699	1.8623	1.8456	1.8198	1.7851	1.7418	1.6901	1.6305	1.5636	1.49	1.4106	1.3264	1.2385	1.1479	1.0561	0.96424	0.8736	0.78534	0.70053	0.62007	0.54472	0.47502	0.41133	0.35383	0.30252	0.25726	0.21776	0.18365	0.15448	0.12975	0.10893	0.091506	0.076995	0.064942	0.054944	0.046653	0.039774	0.034062	0.029317	0.025374	0.022099	0.019384	0.017136	0.015281	0.013752	0.012493	0.011455	0.010597	0.0098813	0.0092786	0.008764	0.0083185	0.0079277	0.0075814	0.0072721	0.0069946	0.0067444	0.0065177	0.0063109	0.0061203	0.0059429	0.0057759	0.005617	0.0054645	0.0053173	0.0051741	0.0050342	0.0048967	0.0047609	0.0046262	0.0044928	0.0043612	0.0042331	0.0041107	0.0039966	0.0038939	0.0038054	0.0037334	0.0036798	0.0036454	0.0036303	0.0036334	0.0036531	0.0036868	0.0037314	0.0037833	0.0038386	0.0038937	0.0039449	0.0039897	0.0040262	0.0040537	0.0040727	0.0040848	0.0040919	0.0040967	0.0041015	0.0041082	0.0041184	0.0041325	0.0041505	0.0041717	0.0041949	0.0042185	0.0042405	0.0042586	0.0042704	0.0042735	0.0042656	0.0042448	0.0042101	0.0041612	0.0040988	0.0040249	0.0039423	0.003855	0.0037678	0.0036857	0.0036141	0.003558	0.0035212	0.0035065	0.0035146	0.0035447	0.0035937	0.0036573	0.0037303	0.0038072	0.0038826	0.0039525	0.0040138	0.0040649	0.0041053	0.0041357	0.004157	0.0041703	0.0041766	0.0041764	0.0041703	0.0041583	0.0041409	0.0041186	0.004092	0.0040614	0.004027	0.0039886	0.0039451	0.003895	0.0038363	0.0037673	0.0036862	0.0035919	0.0034841	0.0033629	0.0032295	0.003085	0.0029314	0.0027707	0.0026048	0.0024362
9.9833e-32	1.6346e-33	2.3519e-35	2.9173e-37	3.0685e-39	2.7039e-41	1.9795e-43	1.1991e-45	6.3597e-48	9.0612e-50	9.8401e-51	1.2973e-51	1.555e-52	1.6788e-53	1.6292e-54	1.4185e-55	1.1061e-56	7.7087e-58	4.7928e-59	2.6532e-60	1.3051e-61	5.693e-63	2.198e-64	7.5471e-66	8.0854e-67	6.1493e-66	6.1072e-65	5.7316e-64	5.0795e-63	4.2521e-62	3.3632e-61	2.5142e-60	1.777e-59	1.1879e-58	7.5131e-58	4.4973e-57	2.5488e-56	1.3682e-55	6.9592e-55	3.3552e-54	1.5339e-53	6.6521e-53	2.7377e-52	1.0696e-51	3.9691e-51	1.3993e-50	4.6888e-50	1.4938e-49	4.5269e-49	1.3053e-48	3.5826e-48	9.3628e-48	2.3307e-47	5.528e-47	1.2497e-46	2.7101e-46	9.7728e-46	8.8527e-44	1.4699e-41	2.0179e-39	2.2711e-37	2.1027e-35	1.6075e-33	1.0187e-31	5.3719e-30	2.3672e-28	8.7538e-27	2.7286e-25	7.2025e-24	1.6179e-22	3.1087e-21	5.1381e-20	7.3493e-19	9.1561e-18	1.0004e-16	9.653e-16	8.2826e-15	6.3592e-14	4.3921e-13	2.7399e-12	1.5483e-11	7.9411e-11	3.702e-10	1.5709e-09	6.0783e-09	2.1493e-08	6.966e-08	2.0767e-07	5.7181e-07	1.4611e-06	3.4825e-06	7.7846e-06	1.6412e-05	3.2815e-05	6.2572e-05	0.00011436	0.00020128	0.00034254	0.00056567	0.00090923	0.0014261	0.0021876	0.0032876	0.0048483	0.0070253	0.010013	0.014054	0.019439	0.026519	0.035707	0.04748	0.062378	0.080995	0.10397	0.13194	0.16554	0.20535	0.25185	0.30537	0.36607	0.43392	0.50867	0.58982	0.67667	0.76835	0.86377	0.96175	1.061	1.1602	1.2579	1.353	1.444	1.53	1.61	1.683	1.7483	1.8054	1.8539	1.8934	1.9236	1.9445	1.9559	1.9578	1.9502	1.9331	1.9066	1.8708	1.8261	1.7727	1.7111	1.6417	1.5654	1.483	1.3954	1.3039	1.2096	1.1138	1.0179	0.92316	0.83082	0.74199	0.65762	0.5785	0.50521	0.43813	0.37746	0.32322	0.27526	0.23332	0.19701	0.16587	0.1394	0.11707	0.098339	0.082704	0.069695	0.058887	0.049913	0.042459	0.036264	0.031113	0.02683	0.02327	0.020318	0.017874	0.015857	0.014197	0.012831	0.011708	0.010782	0.010013	0.0093686	0.0088217	0.0083514	0.007942	0.0075822	0.0072638	0.0069809	0.0067287	0.0065028	0.0062992	0.006114	0.0059438	0.0057853	0.0056361	0.0054941	0.0053577	0.0052257	0.0050969	0.0049702	0.0048446	0.0047194	0.0045947	0.0044711	0.0043501	0.0042341	0.0041259	0.0040284	0.0039445	0.0038766	0.0038261	0.0037938	0.0037797	0.0037828	0.0038016	0.0038338	0.0038764	0.0039262	0.0039794	0.0040322	0.004081	0.004123	0.0041562	0.0041797	0.0041939	0.0042002	0.004201	0.0041989	0.0041964	0.0041957	0.0041986	0.0042056	0.0042171	0.0042324	0.0042504	0.0042695	0.004288	0.0043037	0.0043141	0.0043169	0.00431	0.0042913	0.0042599	0.0042151	0.0041576	0.0040891	0.0040123	0.003931	0.0038497	0.0037736	0.0037079	0.0036577	0.003627	0.0036184	0.003633	0.0036696	0.0037253	0.0037957	0.0038752	0.0039581	0.0040392	0.0041139	0.0041792	0.0042332	0.0042757	0.004307	0.0043282	0.0043406	0.0043451	0.0043426	0.0043339	0.0043194	0.0042998	0.0042758	0.0042484	0.0042179	0.0041847	0.0041484	0.0041079	0.0040614	0.004007	0.0039425	0.003866	0.0037762	0.0036723	0.0035543	0.0034228	0.003279	0.0031244	0.0029607	0.00279	0.0026146
7.1316e-31	1.4024e-32	2.3345e-34	3.2657e-36	3.817e-38	3.7108e-40	2.9892e-42	1.9885e-44	1.089e-46	4.8977e-49	1.8199e-51	7.6119e-54	2.6249e-55	2.5484e-56	2.3332e-57	1.9149e-58	1.4049e-59	9.1963e-61	5.3607e-62	2.7774e-63	1.2771e-64	5.9269e-66	8.726e-66	9.403e-65	9.779e-64	9.6093e-63	8.9234e-62	7.8329e-61	6.5013e-60	5.1037e-59	3.7907e-58	2.6646e-57	1.7733e-56	1.1177e-55	6.6743e-55	3.7774e-54	2.027e-53	1.0317e-52	4.9825e-52	2.2841e-51	9.9437e-51	4.1124e-50	1.6163e-49	6.0401e-49	2.1468e-48	7.2602e-48	2.3371e-47	7.1642e-47	2.092e-46	5.8215e-46	1.5443e-45	3.9067e-45	9.4281e-45	2.1713e-44	4.7734e-44	1.0023e-43	2.0583e-43	1.311e-42	1.4364e-40	1.8064e-38	1.8748e-36	1.6041e-34	1.1355e-32	6.6753e-31	3.272e-29	1.3427e-27	4.632e-26	1.3492e-24	3.333e-23	7.0154e-22	1.2642e-20	1.9602e-19	2.6294e-18	3.0684e-17	3.1338e-16	2.8189e-15	2.2476e-14	1.5988e-13	1.0209e-12	5.8845e-12	3.0762e-11	1.4641e-10	6.3641e-10	2.5327e-09	9.2492e-09	3.1069e-08	9.6258e-08	2.7593e-07	7.346e-07	1.824e-06	4.2439e-06	9.2995e-06	1.9292e-05	3.8084e-05	7.1902e-05	0.00013043	0.00022825	0.00038675	0.0006365	0.0010202	0.0015961	0.0024426	0.0036623	0.0053883	0.0077891	0.011075	0.015505	0.02139	0.029104	0.039083	0.051828	0.067903	0.087927	0.11255	0.14244	0.17825	0.22053	0.26978	0.32632	0.39028	0.46159	0.53997	0.62488	0.7156	0.81116	0.91048	1.0123	1.1153	1.2182	1.3194	1.4178	1.5121	1.601	1.6837	1.7591	1.8267	1.8859	1.936	1.977	2.0084	2.0302	2.0422	2.0444	2.0368	2.0195	1.9924	1.9558	1.9098	1.8548	1.7913	1.7197	1.6408	1.5555	1.4647	1.3698	1.2718	1.1722	1.0724	0.97369	0.87736	0.78457	0.69634	0.61348	0.53661	0.46614	0.40228	0.34507	0.29437	0.24992	0.21134	0.17817	0.1499	0.12597	0.10586	0.08903	0.074996	0.063317	0.053603	0.045524	0.038801	0.033203	0.028544	0.024669	0.021452	0.018787	0.016587	0.014775	0.013286	0.012063	0.011056	0.010222	0.0095249	0.0089364	0.0084332	0.0079979	0.0076182	0.0072851	0.0069918	0.0067332	0.0065045	0.0063013	0.0061193	0.0059545	0.0058034	0.0056629	0.0055306	0.0054046	0.0052832	0.005165	0.0050486	0.0049328	0.004817	0.0047009	0.0045854	0.0044719	0.0043628	0.0042611	0.0041698	0.0040916	0.0040286	0.0039823	0.0039533	0.0039413	0.0039455	0.0039644	0.0039959	0.0040371	0.0040849	0.0041357	0.0041856	0.004231	0.004269	0.0042973	0.0043151	0.0043228	0.0043219	0.0043146	0.0043039	0.0042925	0.0042828	0.0042768	0.0042754	0.0042789	0.004287	0.0042988	0.0043129	0.0043274	0.0043404	0.0043496	0.0043526	0.0043472	0.0043315	0.0043042	0.0042646	0.0042132	0.0041514	0.0040817	0.0040077	0.0039338	0.003865	0.0038065	0.0037632	0.0037394	0.0037376	0.0037587	0.0038018	0.0038638	0.0039402	0.0040254	0.0041138	0.0041997	0.0042788	0.0043477	0.0044048	0.0044496	0.0044824	0.0045043	0.0045166	0.0045205	0.004517	0.004507	0.0044914	0.0044711	0.0044469	0.0044199	0.0043906	0.0043593	0.0043255	0.004288	0.0042451	0.0041945	0.0041339	0.0040612	0.0039749	0.003874	0.0037583	0.003628	0.003484	0.0033277	0.0031606	0.0029848	0.0028024
5.6295e-30	1.2185e-31	2.2211e-33	3.3954e-35	4.3369e-37	4.6124e-39	4.0711e-41	2.9729e-43	1.7909e-45	8.8748e-48	3.6083e-50	1.2007e-52	3.2654e-55	7.5232e-58	3.9085e-60	2.0381e-61	1.3948e-62	8.5802e-64	4.7582e-65	1.0718e-65	1.0249e-64	1.174e-63	1.2725e-62	1.3043e-61	1.2643e-60	1.1593e-59	1.0059e-58	8.2615e-58	6.4239e-57	4.7306e-56	3.3004e-55	2.1822e-54	1.3678e-53	8.1313e-53	4.586e-52	2.4548e-51	1.2476e-50	6.0227e-50	2.7626e-49	1.2046e-48	4.9953e-48	1.9707e-47	7.3997e-47	2.6455e-46	9.0089e-46	2.9235e-45	9.0437e-45	2.668e-44	7.5093e-44	2.0171e-43	5.1731e-43	1.2671e-42	2.9654e-42	6.6325e-42	1.4183e-41	2.9005e-41	5.6797e-41	1.1519e-40	1.4587e-39	1.4786e-37	1.4132e-35	1.1182e-33	7.3365e-32	4.0058e-30	1.8273e-28	6.9925e-27	2.2539e-25	6.1454e-24	1.4237e-22	2.8147e-21	4.7714e-20	6.968e-19	8.8102e-18	9.6944e-17	9.3342e-16	7.9088e-15	5.9319e-14	3.9625e-13	2.3718e-12	1.2796e-11	6.2578e-11	2.7879e-10	1.1364e-09	4.2543e-09	1.4675e-08	4.679e-08	1.383e-07	3.802e-07	9.7566e-07	2.3465e-06	5.3128e-06	1.1377e-05	2.3155e-05	4.5005e-05	8.3914e-05	0.00015071	0.0002617	0.00044071	0.00072172	0.001152	0.001796	0.0027395	0.004095	0.0060069	0.0086576	0.012273	0.017131	0.023562	0.031962	0.042789	0.05657	0.07389	0.095389	0.12174	0.15362	0.19167	0.23648	0.28851	0.34806	0.41525	0.48999	0.57193	0.66051	0.75495	0.85426	0.9573	1.0628	1.1694	1.2756	1.3802	1.4817	1.5789	1.6706	1.7558	1.8336	1.9033	1.9642	2.0161	2.0584	2.091	2.1137	2.1264	2.129	2.1216	2.104	2.0765	2.0391	1.9921	1.9358	1.8705	1.7969	1.7156	1.6276	1.5339	1.4357	1.3343	1.2311	1.1275	1.0249	0.92472	0.82809	0.73608	0.64955	0.56913	0.49529	0.42824	0.36804	0.31458	0.26758	0.22668	0.19141	0.16126	0.13568	0.11411	0.096013	0.080889	0.068274	0.057763	0.049005	0.041705	0.035619	0.030547	0.026322	0.02281	0.019898	0.017491	0.015508	0.013877	0.012537	0.011434	0.010522	0.0097623	0.0091224	0.0085774	0.0081086	0.0077021	0.007348	0.007039	0.0067692	0.0065336	0.0063273	0.0061455	0.0059838	0.005838	0.0057046	0.0055806	0.0054635	0.0053514	0.0052423	0.0051349	0.0050277	0.00492	0.0048116	0.0047034	0.0045969	0.0044946	0.0043995	0.0043145	0.0042423	0.0041848	0.0041434	0.0041185	0.0041097	0.004116	0.0041361	0.0041677	0.0042082	0.0042544	0.0043027	0.0043493	0.0043905	0.0044233	0.0044456	0.0044563	0.0044561	0.0044463	0.0044296	0.004409	0.0043874	0.0043675	0.0043514	0.0043405	0.0043352	0.0043355	0.0043406	0.0043493	0.0043599	0.0043704	0.0043788	0.0043825	0.0043794	0.0043675	0.0043452	0.0043118	0.0042675	0.0042134	0.0041519	0.0040863	0.0040208	0.0039603	0.0039099	0.0038744	0.003858	0.0038631	0.0038908	0.00394	0.0040077	0.0040894	0.0041796	0.0042725	0.0043626	0.0044455	0.004518	0.0045783	0.0046256	0.0046605	0.004684	0.0046974	0.0047019	0.0046988	0.0046892	0.0046741	0.0046546	0.0046317	0.0046064	0.0045793	0.0045505	0.0045196	0.0044851	0.0044453	0.0043978	0.0043402	0.0042702	0.0041862	0.004087	0.0039721	0.0038417	0.0036964	0.0035373	0.003366	0.0031844	0.0029948
4.1425e-29	9.7283e-31	1.926e-32	3.203e-34	4.459e-36	5.1789e-38	5.0024e-40	4.0062e-42	2.6524e-44	1.4477e-46	6.4972e-49	2.3916e-51	7.2045e-54	1.7739e-56	3.6983e-59	1.6888e-61	8.0394e-63	6.1886e-64	1.0543e-63	1.2134e-62	1.3653e-61	1.454e-60	1.4657e-59	1.3989e-58	1.2642e-57	1.0822e-56	8.7775e-56	6.7469e-55	4.9166e-54	3.3977e-53	2.2275e-52	1.3858e-51	8.1846e-51	4.5907e-50	2.4463e-49	1.2389e-48	5.9659e-48	2.7325e-47	1.191e-46	4.9414e-46	1.9525e-45	7.3506e-45	2.6376e-44	9.0247e-44	2.9456e-43	9.175e-43	2.7284e-42	7.7491e-42	2.1028e-41	5.4543e-41	1.3527e-40	3.2091e-40	7.2845e-40	1.5828e-39	3.2929e-39	6.562e-39	1.2529e-38	2.3005e-38	5.0569e-38	1.1738e-36	9.7817e-35	7.1525e-33	4.3521e-31	2.2091e-29	9.3892e-28	3.3546e-26	1.0117e-24	2.5861e-23	5.6277e-22	1.0471e-20	1.6735e-19	2.3077e-18	2.7592e-17	2.8743e-16	2.622e-15	2.1056e-14	1.4967e-13	9.4703e-13	5.3652e-12	2.7373e-11	1.2649e-10	5.3236e-10	2.0509e-09	7.2666e-09	2.3778e-08	7.214e-08	2.0366e-07	5.3697e-07	1.3273e-06	3.0882e-06	6.7928e-06	1.419e-05	2.8278e-05	5.4004e-05	9.9242e-05	0.00017615	0.00030295	0.0005062	0.00082368	0.0013077	0.0020294	0.0030828	0.0045906	0.0067094	0.009636	0.013613	0.018935	0.025955	0.035088	0.046817	0.061689	0.080312	0.10334	0.13147	0.16538	0.20572	0.25307	0.30787	0.37041	0.44079	0.51886	0.60426	0.69637	0.79437	0.89724	1.0038	1.1127	1.2226	1.332	1.4396	1.544	1.6439	1.738	1.8256	1.9055	1.9771	2.0399	2.0932	2.1369	2.1707	2.1943	2.2077	2.2108	2.2036	2.186	2.1582	2.1202	2.0723	2.0148	1.948	1.8726	1.7892	1.6988	1.6023	1.5011	1.3965	1.2899	1.1828	1.0766	0.97267	0.87234	0.77667	0.68654	0.60266	0.52548	0.45527	0.39209	0.33584	0.28627	0.24301	0.20559	0.17351	0.14621	0.12312	0.1037	0.087414	0.073801	0.062432	0.052941	0.045016	0.038397	0.032871	0.028261	0.024422	0.021235	0.018596	0.016418	0.014625	0.013151	0.011937	0.010934	0.010098	0.0093963	0.0088003	0.0082896	0.0078489	0.0074672	0.0071364	0.0068502	0.0066029	0.0063892	0.0062039	0.0060419	0.0058986	0.0057696	0.0056514	0.0055409	0.0054356	0.0053334	0.0052326	0.0051317	0.00503	0.0049275	0.0048249	0.0047241	0.0046276	0.0045383	0.0044591	0.0043926	0.0043406	0.0043043	0.0042838	0.0042788	0.0042882	0.0043103	0.004343	0.0043835	0.0044286	0.0044746	0.0045177	0.0045541	0.004581	0.0045961	0.0045988	0.0045894	0.0045699	0.0045428	0.0045113	0.0044787	0.0044479	0.0044213	0.0044004	0.0043861	0.0043784	0.0043769	0.0043805	0.0043876	0.0043964	0.0044046	0.00441	0.0044101	0.0044028	0.0043864	0.00436	0.0043235	0.004278	0.0042254	0.0041689	0.0041125	0.004061	0.0040192	0.0039919	0.003983	0.0039951	0.0040291	0.0040839	0.0041565	0.0042426	0.0043367	0.0044333	0.004527	0.0046134	0.0046892	0.0047527	0.0048031	0.0048408	0.0048667	0.0048822	0.0048886	0.0048873	0.0048796	0.0048665	0.0048493	0.004829	0.0048065	0.0047824	0.0047567	0.0047286	0.004697	0.0046597	0.0046144	0.0045587	0.0044901	0.0044069	0.0043078	0.0041922	0.00406	0.0039118	0.0037486	0.0035719	0.0033837	0.0031865
2.7852e-28	7.0754e-30	1.5183e-31	2.7425e-33	4.1558e-35	5.2653e-37	5.5603e-39	4.8792e-41	3.5475e-43	2.1311e-45	1.0551e-47	4.2946e-50	1.4353e-52	4.066e-55	2.1698e-57	1.083e-58	8.3063e-60	7.1356e-61	1.2669e-60	1.3507e-59	1.4104e-58	1.3957e-57	1.309e-56	1.1638e-55	9.8101e-55	7.8429e-54	5.9484e-53	4.2813e-52	2.9251e-51	1.8978e-50	1.1696e-49	6.8499e-49	3.8136e-48	2.0191e-47	1.017e-46	4.8754e-46	2.2253e-45	9.6748e-45	4.0082e-44	1.5831e-43	5.963e-43	2.1431e-42	7.3519e-42	2.4084e-41	7.537e-41	2.2543e-40	6.4465e-40	1.7633e-39	4.615e-39	1.1562e-38	2.774e-38	6.3754e-38	1.4042e-37	2.9647e-37	6.0028e-37	1.1659e-36	2.1729e-36	3.8877e-36	6.7559e-36	1.8739e-35	6.4315e-34	4.2295e-32	2.3837e-30	1.125e-28	4.4579e-27	1.4886e-25	4.2053e-24	1.0092e-22	2.066e-21	3.6237e-20	5.4697e-19	7.1373e-18	8.0885e-17	7.9987e-16	6.9358e-15	5.3001e-14	3.5876e-13	2.1626e-12	1.1673e-11	5.6729e-11	2.4965e-10	1.0004e-09	3.6698e-09	1.2388e-08	3.867e-08	1.1212e-07	3.0328e-07	7.6845e-07	1.8316e-06	4.1243e-06	8.8119e-06	1.7944e-05	3.4982e-05	6.5564e-05	0.00011859	0.00020773	0.00035335	0.00058505	0.00094474	0.0014903	0.0022997	0.0034761	0.0051529	0.0074994	0.010727	0.015094	0.020915	0.028562	0.038472	0.051147	0.067157	0.087128	0.11173	0.14167	0.17764	0.22027	0.27015	0.32769	0.39317	0.46664	0.54794	0.63664	0.73211	0.83347	0.93967	1.0495	1.1615	1.2745	1.3868	1.4971	1.604	1.7063	1.8027	1.8923	1.9742	2.0476	2.1119	2.1667	2.2117	2.2466	2.2711	2.2853	2.2889	2.282	2.2646	2.2366	2.1983	2.1497	2.0913	2.0232	1.9463	1.861	1.7684	1.6696	1.5657	1.4581	1.3484	1.238	1.1283	1.0209	0.91708	0.81789	0.72431	0.63704	0.5566	0.48328	0.41715	0.35812	0.30597	0.26032	0.22073	0.18667	0.1576	0.13293	0.11211	0.094609	0.079936	0.067652	0.057372	0.048771	0.041574	0.035553	0.03052	0.026321	0.022827	0.019929	0.017533	0.015556	0.013929	0.012587	0.011477	0.010553	0.0097779	0.0091207	0.008559	0.008076	0.0076593	0.0073001	0.0069913	0.0067266	0.0065004	0.0063069	0.0061404	0.0059954	0.0058671	0.0057512	0.0056438	0.005542	0.0054434	0.0053459	0.0052481	0.0051494	0.0050499	0.0049506	0.0048533	0.0047606	0.0046755	0.0046008	0.004539	0.0044918	0.0044601	0.0044441	0.0044432	0.004456	0.0044809	0.0045154	0.0045565	0.004601	0.0046449	0.0046844	0.0047158	0.0047362	0.0047437	0.0047377	0.0047188	0.004689	0.0046511	0.0046085	0.0045648	0.0045231	0.004486	0.0044555	0.0044325	0.0044176	0.0044103	0.0044097	0.0044143	0.0044224	0.0044316	0.0044396	0.0044438	0.004442	0.0044323	0.0044136	0.0043855	0.0043489	0.0043056	0.0042586	0.0042116	0.0041693	0.0041363	0.0041172	0.0041157	0.0041344	0.0041741	0.0042337	0.0043103	0.0043998	0.0044971	0.0045965	0.0046931	0.0047825	0.0048615	0.0049283	0.0049821	0.0050232	0.0050524	0.005071	0.0050804	0.0050821	0.0050774	0.0050675	0.0050537	0.0050369	0.0050179	0.0049972	0.0049745	0.0049492	0.0049198	0.0048842	0.0048402	0.004785	0.0047165	0.0046325	0.0045319	0.0044138	0.0042781	0.0041254	0.0039566	0.0037734	0.0035778	0.0033722
1.7117e-27	4.6961e-29	1.0908e-30	2.1373e-32	3.5211e-34	4.8613e-36	5.607e-38	5.3863e-40	4.2972e-42	2.8394e-44	1.55e-46	6.9814e-49	2.6747e-51	1.7371e-53	9.1958e-55	8.0265e-56	6.7644e-57	6.4316e-58	1.1824e-57	1.1679e-56	1.1323e-55	1.0418e-54	9.0947e-54	7.5357e-53	5.9278e-52	4.4281e-51	3.1422e-50	2.1186e-49	1.3579e-48	8.2749e-48	4.7967e-47	2.6458e-46	1.3892e-45	6.9461e-45	3.3087e-44	1.5021e-43	6.5019e-43	2.6845e-42	1.0577e-41	3.9784e-41	1.4292e-40	4.9057e-40	1.6096e-39	5.0506e-39	1.5161e-38	4.3561e-38	1.1984e-37	3.158e-37	7.975e-37	1.9307e-36	4.4824e-36	9.984e-36	2.1343e-35	4.3803e-35	8.6337e-35	1.6349e-34	2.9751e-34	5.2043e-34	8.7603e-34	1.469e-33	6.0136e-33	2.3783e-31	1.2192e-29	5.3341e-28	1.9688e-26	6.1445e-25	1.627e-23	3.6688e-22	7.0742e-21	1.1713e-19	1.6724e-18	2.0685e-17	2.2261e-16	2.0943e-15	1.7305e-14	1.2619e-13	8.1613e-13	4.7051e-12	2.4306e-11	1.1311e-10	4.7677e-10	1.8302e-09	6.433e-09	2.0816e-08	6.233e-08	1.7357e-07	4.5163e-07	1.1032e-06	2.5415e-06	5.547e-06	1.1522e-05	2.2882e-05	4.3633e-05	8.0223e-05	0.00014273	0.0002465	0.00041431	0.00067905	0.0010871	0.0017021	0.0026098	0.0039223	0.0057843	0.0083781	0.01193	0.016715	0.023065	0.031372	0.042092	0.05575	0.072932	0.094283	0.12049	0.15226	0.19028	0.23519	0.28756	0.34778	0.4161	0.49255	0.57692	0.66875	0.76736	0.87184	0.98109	1.0939	1.2088	1.3244	1.4393	1.552	1.6612	1.7656	1.864	1.9554	2.0389	2.1139	2.1797	2.2358	2.282	2.3179	2.3434	2.3584	2.3627	2.3562	2.339	2.3112	2.2726	2.2237	2.1645	2.0955	2.0173	1.9305	1.8361	1.7351	1.6289	1.5187	1.4061	1.2927	1.1799	1.0692	0.96206	0.85954	0.76264	0.67212	0.58852	0.51215	0.44312	0.38135	0.32663	0.27859	0.2368	0.20074	0.16985	0.14355	0.12128	0.10251	0.086716	0.073459	0.062338	0.053011	0.045188	0.03863	0.033136	0.028542	0.02471	0.021524	0.018883	0.0167	0.014898	0.01341	0.012178	0.011151	0.010289	0.0095598	0.0089371	0.0084026	0.0079427	0.0075474	0.0072089	0.0069203	0.0066753	0.0064677	0.0062911	0.0061394	0.0060069	0.0058885	0.0057798	0.0056772	0.0055778	0.0054795	0.0053809	0.0052815	0.0051815	0.0050821	0.0049853	0.0048939	0.0048106	0.0047384	0.0046795	0.0046356	0.0046076	0.0045954	0.0045982	0.0046145	0.0046423	0.004679	0.0047212	0.0047653	0.0048074	0.0048434	0.0048698	0.0048838	0.0048836	0.0048688	0.0048404	0.0048005	0.0047522	0.0046991	0.0046449	0.0045931	0.0045466	0.0045075	0.0044772	0.0044563	0.0044446	0.0044413	0.0044451	0.0044538	0.0044654	0.0044772	0.0044866	0.004491	0.0044886	0.004478	0.0044586	0.0044311	0.0043971	0.0043595	0.0043219	0.0042885	0.0042641	0.0042528	0.0042583	0.0042829	0.0043275	0.0043909	0.0044707	0.0045626	0.0046619	0.0047635	0.0048623	0.0049543	0.0050363	0.0051065	0.005164	0.0052089	0.005242	0.0052644	0.0052776	0.005283	0.0052821	0.0052761	0.0052661	0.0052531	0.0052377	0.0052201	0.0052001	0.0051769	0.0051488	0.005114	0.0050699	0.005014	0.004944	0.0048578	0.004754	0.0046317	0.0044909	0.0043321	0.0041564	0.0039654	0.0037615	0.0035472
9.6419e-27	2.8531e-28	7.1632e-30	1.5207e-31	2.7208e-33	4.089e-35	5.146e-37	5.407e-39	4.73e-41	3.4358e-43	2.0699e-45	1.0665e-47	8.6811e-50	4.9541e-51	4.9047e-52	4.7225e-53	4.3124e-54	4.5407e-55	8.5967e-55	7.8712e-54	7.0895e-53	6.0671e-52	4.9329e-51	3.8115e-50	2.7995e-49	1.9551e-48	1.2987e-47	8.2079e-47	4.9373e-46	2.8278e-45	1.5426e-44	8.0182e-44	3.9727e-43	1.877e-42	8.46e-42	3.6392e-41	1.4946e-40	5.8635e-40	2.1982e-39	7.8782e-39	2.7005e-38	8.8575e-38	2.781e-37	8.3622e-37	2.409e-36	6.6519e-36	1.7613e-35	4.4736e-35	1.0905e-34	2.5519e-34	5.7356e-34	1.2386e-33	2.5708e-33	5.1303e-33	9.8471e-33	1.8185e-32	3.2321e-32	5.5304e-32	9.1134e-32	1.4505e-31	2.4506e-31	1.6028e-30	6.0195e-29	2.397e-27	8.1898e-26	2.3819e-24	5.9043e-23	1.2508e-21	2.2726e-20	3.5547e-19	4.8066e-18	5.6424e-17	5.7755e-16	5.1781e-15	4.085e-14	2.8489e-13	1.7648e-12	9.7589e-12	4.8409e-11	2.1653e-10	8.7786e-10	3.2432e-09	1.0977e-08	3.4218e-08	9.8771e-08	2.6537e-07	6.6704e-07	1.5765e-06	3.5204e-06	7.4643e-06	1.5099e-05	2.9272e-05	5.4632e-05	9.8552e-05	0.00017244	0.00029352	0.00048716	0.00078983	0.0012526	0.0019454	0.0029616	0.004423	0.0064854	0.0093444	0.013241	0.018467	0.025371	0.034365	0.045923	0.060587	0.078964	0.10171	0.12952	0.16311	0.20316	0.25032	0.3051	0.36792	0.43896	0.51823	0.60548	0.70023	0.80174	0.90906	1.0211	1.1365	1.2539	1.3719	1.489	1.6038	1.7149	1.8211	1.9211	2.0141	2.0991	2.1754	2.2425	2.2998	2.3471	2.3841	2.4105	2.4263	2.4313	2.4254	2.4087	2.381	2.3425	2.2934	2.2338	2.1641	2.085	1.997	1.9011	1.7984	1.6901	1.5777	1.4626	1.3465	1.2309	1.1172	1.007	0.90136	0.80133	0.70772	0.62108	0.54176	0.4699	0.40544	0.34818	0.29777	0.25378	0.2157	0.18296	0.155	0.13123	0.11113	0.094168	0.079886	0.067872	0.057771	0.049278	0.04214	0.036147	0.031122	0.02692	0.023416	0.020503	0.018089	0.016091	0.014436	0.013063	0.011918	0.010956	0.010141	0.0094454	0.0088492	0.0083366	0.0078964	0.0075199	0.0071995	0.0069284	0.0066997	0.0065063	0.0063415	0.0061988	0.0060723	0.0059568	0.0058482	0.0057431	0.0056393	0.0055353	0.0054307	0.0053259	0.0052226	0.0051227	0.0050291	0.0049446	0.0048721	0.0048137	0.0047712	0.0047451	0.0047354	0.004741	0.0047602	0.0047907	0.0048294	0.0048727	0.0049167	0.0049571	0.0049899	0.0050115	0.0050194	0.0050119	0.004989	0.0049519	0.0049029	0.0048453	0.004783	0.0047199	0.0046597	0.0046055	0.0045598	0.0045242	0.0044995	0.0044855	0.0044816	0.0044862	0.0044974	0.0045128	0.0045296	0.0045451	0.0045565	0.0045618	0.0045593	0.0045486	0.0045299	0.004505	0.0044764	0.0044476	0.0044228	0.0044062	0.0044021	0.0044138	0.0044435	0.004492	0.0045584	0.0046402	0.0047336	0.0048341	0.0049369	0.0050374	0.0051316	0.0052165	0.00529	0.0053513	0.0054002	0.0054374	0.005464	0.0054813	0.0054907	0.0054937	0.0054915	0.0054852	0.0054755	0.005463	0.0054477	0.0054294	0.005407	0.0053791	0.0053436	0.0052981	0.0052401	0.0051671	0.005077	0.0049685	0.0048405	0.0046931	0.0045268	0.0043429	0.0041433	0.0039304	0.0037071
4.9947e-26	1.5918e-27	4.3147e-29	9.9124e-31	1.9238e-32	3.144e-34	4.3134e-36	4.9534e-38	4.7486e-40	3.7966e-42	2.6153e-44	2.7246e-46	1.709e-47	1.9115e-48	2.098e-49	2.1843e-50	2.1591e-51	2.5193e-52	4.8866e-52	4.1492e-51	3.4738e-50	2.767e-49	2.0966e-48	1.5116e-47	1.0372e-46	6.7766e-46	4.2165e-45	2.4994e-44	1.412e-43	7.6052e-43	3.9067e-42	1.9148e-41	8.9575e-41	4.0014e-40	1.7075e-39	6.9638e-39	2.7154e-38	1.0128e-37	3.6146e-37	1.2351e-36	4.0419e-36	1.2675e-35	3.8101e-35	1.0984e-34	3.0382e-34	8.0666e-34	2.0566e-33	5.0372e-33	1.1857e-32	2.6835e-32	5.8413e-32	1.2234e-31	2.4665e-31	4.7879e-31	8.9524e-31	1.6129e-30	2.8007e-30	4.689e-30	7.571e-30	1.1797e-29	1.7911e-29	3.3364e-29	3.3637e-28	1.0685e-26	3.298e-25	8.8368e-24	2.0379e-22	4.0425e-21	6.9096e-20	1.0205e-18	1.307e-17	1.4571e-16	1.4199e-15	1.2146e-14	9.1618e-14	6.121e-13	3.639e-12	1.9342e-11	9.2361e-11	3.9819e-10	1.5577e-09	5.5579e-09	1.8182e-08	5.4825e-08	1.5319e-07	3.9872e-07	9.7187e-07	2.23e-06	4.842e-06	9.9987e-06	1.9735e-05	3.7408e-05	6.8403e-05	0.00012114	0.00020851	0.00034978	0.00057314	0.0009188	0.0014428	0.0022215	0.003356	0.0049779	0.0072546	0.010394	0.014653	0.020338	0.027816	0.037514	0.049927	0.065612	0.085189	0.10933	0.13873	0.17411	0.21615	0.26547	0.32259	0.38787	0.46149	0.5434	0.63332	0.73073	0.83486	0.94472	1.0592	1.1769	1.2965	1.4165	1.5354	1.6519	1.7646	1.8722	1.9736	2.0678	2.154	2.2315	2.2997	2.3581	2.4064	2.4444	2.4718	2.4884	2.4942	2.489	2.4728	2.4456	2.4073	2.3582	2.2985	2.2285	2.1487	2.0599	1.9629	1.8588	1.7489	1.6346	1.5175	1.399	1.2809	1.1646	1.0516	0.94307	0.84014	0.74361	0.6541	0.57196	0.49737	0.43029	0.37054	0.3178	0.27162	0.23151	0.19691	0.16726	0.14197	0.12049	0.10231	0.086959	0.074005	0.063083	0.053877	0.04612	0.039589	0.034098	0.029493	0.025641	0.022429	0.019757	0.017539	0.015696	0.014163	0.012881	0.011802	0.010887	0.010106	0.0094363	0.0088601	0.0083649	0.0079409	0.0075798	0.0072739	0.0070158	0.0067978	0.0066124	0.0064524	0.0063111	0.0061827	0.0060622	0.005946	0.0058314	0.0057169	0.0056024	0.0054884	0.0053766	0.0052694	0.0051697	0.0050804	0.0050042	0.0049435	0.0048996	0.0048732	0.0048641	0.0048709	0.0048919	0.0049241	0.0049642	0.0050082	0.0050519	0.0050907	0.0051205	0.0051379	0.0051404	0.0051267	0.005097	0.0050526	0.0049963	0.0049315	0.0048622	0.0047925	0.0047265	0.0046673	0.0046177	0.0045795	0.0045535	0.0045397	0.0045374	0.004545	0.0045604	0.0045811	0.004604	0.0046263	0.0046451	0.0046581	0.0046637	0.0046612	0.0046509	0.0046344	0.0046141	0.0045935	0.0045763	0.0045669	0.004569	0.004586	0.0046199	0.0046715	0.0047398	0.0048227	0.0049167	0.0050176	0.005121	0.0052226	0.0053185	0.0054059	0.0054825	0.0055474	0.0056002	0.0056414	0.0056719	0.0056931	0.0057062	0.0057126	0.0057135	0.0057098	0.0057023	0.0056914	0.005677	0.0056588	0.0056357	0.0056062	0.0055685	0.00552	0.0054582	0.0053807	0.0052853	0.0051705	0.0050355	0.0048801	0.0047052	0.0045122	0.0043032	0.004081	0.0038486
2.3873e-25	8.1841e-27	2.3919e-28	5.9398e-30	1.2492e-31	2.2179e-33	3.3146e-35	4.1581e-37	4.3762e-39	4.0055e-41	5.4211e-43	3.8112e-44	4.7993e-45	5.9825e-46	7.0884e-47	7.9679e-48	8.5204e-49	1.1023e-49	2.1794e-49	1.717e-48	1.3372e-47	9.92e-47	7.0095e-46	4.7188e-45	3.0274e-44	1.8515e-43	1.0798e-42	6.0078e-42	3.1897e-41	1.6167e-40	7.8256e-40	3.6189e-39	1.5996e-38	6.7604e-38	2.7331e-37	1.0574e-36	3.9171e-36	1.3898e-35	4.7253e-35	1.5402e-34	4.8151e-34	1.4444e-33	4.1595e-33	1.1504e-32	3.0568e-32	7.8077e-32	1.9177e-31	4.5316e-31	1.0306e-30	2.2567e-30	4.7596e-30	9.6729e-30	1.8949e-29	3.5795e-29	6.5223e-29	1.1468e-28	1.9462e-28	3.1891e-28	5.0471e-28	7.7175e-28	1.1424e-27	1.69e-27	4.0321e-27	5.4117e-26	1.3677e-24	3.2647e-23	6.8752e-22	1.2631e-20	2.018e-19	2.804e-18	3.3945e-17	3.5908e-16	3.3308e-15	2.7197e-14	1.9629e-13	1.2576e-12	7.1846e-12	3.6765e-11	1.6931e-10	7.0502e-10	2.6676e-09	9.2171e-09	2.9231e-08	8.5527e-08	2.3209e-07	5.872e-07	1.3926e-06	3.1122e-06	6.5892e-06	1.3285e-05	2.5641e-05	4.76e-05	8.5381e-05	0.00014858	0.00025169	0.0004162	0.00067324	0.001067	0.0016585	0.0025306	0.0037925	0.0055854	0.0080878	0.011521	0.016155	0.022313	0.030376	0.04079	0.054063	0.070769	0.091538	0.11705	0.14801	0.18513	0.22909	0.28048	0.33981	0.40741	0.48341	0.56775	0.6601	0.7599	0.86634	0.97842	1.0949	1.2146	1.336	1.4576	1.578	1.6958	1.8097	1.9184	2.0208	2.1161	2.2032	2.2816	2.3508	2.4101	2.4594	2.4983	2.5266	2.5441	2.5507	2.5463	2.5308	2.5042	2.4664	2.4176	2.358	2.2879	2.2079	2.1186	2.0209	1.9158	1.8048	1.689	1.5702	1.4498	1.3295	1.2109	1.0955	0.98438	0.8788	0.77958	0.68737	0.60256	0.52537	0.45578	0.39362	0.33859	0.29026	0.24814	0.21168	0.18031	0.15347	0.13059	0.11116	0.094694	0.080759	0.068975	0.059015	0.050599	0.043494	0.037504	0.032464	0.028234	0.024694	0.021738	0.019275	0.017221	0.015506	0.014067	0.012853	0.011823	0.010941	0.010184	0.0095317	0.0089699	0.0084876	0.0080754	0.0077249	0.007428	0.0071764	0.006962	0.0067768	0.0066134	0.0064652	0.0063266	0.0061934	0.0060625	0.0059325	0.005803	0.0056748	0.00555	0.005431	0.0053208	0.0052226	0.005139	0.0050724	0.0050241	0.0049946	0.0049836	0.0049897	0.0050105	0.005043	0.0050835	0.0051274	0.0051703	0.0052074	0.0052346	0.0052485	0.0052468	0.0052284	0.0051936	0.0051443	0.0050831	0.0050138	0.0049405	0.0048675	0.0047988	0.0047379	0.0046877	0.0046499	0.0046256	0.0046146	0.0046163	0.0046289	0.0046501	0.0046772	0.004707	0.0047366	0.0047628	0.0047834	0.0047965	0.0048016	0.004799	0.00479	0.0047772	0.0047637	0.0047534	0.0047501	0.0047577	0.0047791	0.0048163	0.00487	0.0049394	0.0050226	0.0051165	0.0052171	0.0053206	0.0054226	0.0055198	0.0056091	0.0056883	0.0057562	0.0058124	0.005857	0.0058909	0.0059152	0.005931	0.0059397	0.0059423	0.0059397	0.0059327	0.0059214	0.0059059	0.0058858	0.00586	0.0058272	0.0057853	0.0057319	0.0056647	0.005581	0.0054788	0.0053563	0.0052129	0.0050485	0.0048641	0.0046613	0.0044426	0.0042109	0.0039698
1.0566e-24	3.8912e-26	1.2248e-27	3.2843e-29	7.4779e-31	1.4413e-32	2.3453e-34	3.2223e-36	3.8951e-38	6.9202e-40	5.5503e-41	7.8459e-42	1.1065e-42	1.4865e-43	1.8976e-44	2.3012e-45	2.6605e-46	3.8173e-47	7.6555e-47	5.5996e-46	4.0592e-45	2.8069e-44	1.851e-43	1.1644e-42	6.9893e-42	4.0046e-41	2.1908e-40	1.1449e-39	5.7166e-39	2.7286e-38	1.2454e-37	5.4384e-37	2.2728e-36	9.0942e-36	3.4856e-35	1.2803e-34	4.5083e-34	1.5227e-33	4.9351e-33	1.5355e-32	4.5886e-32	1.3176e-31	3.6369e-31	9.6548e-31	2.466e-30	6.063e-30	1.4355e-29	3.2743e-29	7.1981e-29	1.5257e-28	3.1194e-28	6.1542e-28	1.172e-27	2.1553e-27	3.8287e-27	6.5722e-27	1.0905e-26	1.7495e-26	2.7148e-26	4.0757e-26	5.9247e-26	8.4002e-26	1.2796e-25	4.5459e-25	6.6193e-24	1.2949e-22	2.3877e-21	3.9576e-20	5.813e-19	7.5195e-18	8.5491e-17	8.547e-16	7.5291e-15	5.8609e-14	4.0457e-13	2.486e-12	1.3655e-11	6.7334e-11	2.994e-10	1.2059e-09	4.4209e-09	1.4822e-08	4.5669e-08	1.2998e-07	3.4346e-07	8.4703e-07	1.9599e-06	4.2776e-06	8.8535e-06	1.747e-05	3.3035e-05	6.016e-05	0.00010599	0.00018141	0.00030263	0.00049348	0.00078816	0.0012348	0.0018998	0.0028723	0.0042694	0.0062417	0.008979	0.012715	0.017733	0.02437	0.033025	0.044155	0.058284	0.075997	0.097937	0.12479	0.15725	0.19604	0.24182	0.29517	0.35656	0.42629	0.50449	0.59101	0.68552	0.78741	0.89584	1.0098	1.128	1.2492	1.372	1.4948	1.6163	1.7351	1.8498	1.9593	2.0625	2.1584	2.2462	2.3254	2.3952	2.4554	2.5055	2.5452	2.5744	2.5928	2.6003	2.5968	2.5821	2.5562	2.5191	2.4708	2.4116	2.3418	2.2619	2.1725	2.0745	1.9689	1.857	1.7403	1.6202	1.4983	1.3764	1.2559	1.1383	1.025	0.91701	0.81536	0.72067	0.63339	0.55374	0.48176	0.41729	0.36004	0.3096	0.2655	0.2272	0.19413	0.16572	0.14142	0.12071	0.1031	0.088146	0.075464	0.064713	0.055604	0.047892	0.041369	0.035863	0.031225	0.027329	0.024062	0.021328	0.019038	0.017118	0.015502	0.014134	0.012969	0.011971	0.011111	0.010368	0.0097269	0.009174	0.0086993	0.0082932	0.0079472	0.0076522	0.0073995	0.0071805	0.0069871	0.0068119	0.0066486	0.0064924	0.0063397	0.0061888	0.0060394	0.0058923	0.0057496	0.0056141	0.005489	0.0053776	0.0052826	0.0052063	0.0051501	0.0051144	0.0050987	0.0051014	0.0051199	0.0051509	0.00519	0.0052328	0.0052742	0.0053094	0.0053344	0.0053457	0.0053411	0.0053198	0.0052825	0.0052308	0.0051679	0.0050975	0.0050237	0.004951	0.0048834	0.0048245	0.0047771	0.004743	0.0047232	0.0047176	0.0047253	0.0047444	0.0047726	0.0048069	0.004844	0.0048808	0.0049141	0.0049417	0.0049617	0.0049735	0.0049776	0.0049752	0.0049689	0.0049618	0.0049574	0.0049596	0.0049718	0.0049968	0.0050366	0.0050918	0.0051617	0.0052446	0.0053378	0.0054376	0.0055405	0.0056425	0.0057403	0.0058308	0.0059118	0.0059819	0.0060405	0.0060876	0.0061237	0.0061497	0.0061669	0.0061762	0.0061788	0.0061754	0.0061666	0.0061528	0.006134	0.0061096	0.006079	0.0060406	0.0059925	0.0059324	0.0058579	0.0057664	0.0056557	0.0055242	0.0053713	0.0051969	0.0050023	0.0047893	0.0045608	0.0043198	0.0040702
4.345e-24	1.7172e-25	5.8154e-27	1.6822e-28	4.1435e-30	8.6673e-32	1.5415e-33	2.4468e-35	5.7472e-37	5.3347e-38	8.4447e-39	1.342e-39	2.0363e-40	2.9412e-41	4.0417e-42	5.2829e-43	6.5997e-44	1.0502e-44	2.1264e-44	1.445e-43	9.7582e-43	6.2946e-42	3.877e-41	2.2808e-40	1.282e-39	6.8866e-39	3.5369e-38	1.7374e-37	8.1655e-37	3.6732e-36	1.5822e-35	6.5287e-35	2.5817e-34	9.7877e-34	3.5592e-33	1.242e-32	4.1606e-32	1.3387e-31	4.1387e-31	1.23e-30	3.5159e-30	9.67e-30	2.5602e-29	6.5279e-29	1.6037e-28	3.7975e-28	8.6717e-28	1.9104e-27	4.0618e-27	8.3385e-27	1.6535e-26	3.1682e-26	5.8681e-26	1.051e-25	1.821e-25	3.0529e-25	4.9544e-25	7.7851e-25	1.1848e-24	1.7471e-24	2.4971e-24	3.469e-24	4.8063e-24	8.4829e-24	4.5793e-23	6.1207e-22	9.2236e-21	1.3183e-19	1.7248e-18	2.0326e-17	2.139e-16	2.0016e-15	1.6639e-14	1.2298e-13	8.0991e-13	4.7664e-12	2.5156e-11	1.1952e-10	5.133e-10	2.0014e-09	7.1162e-09	2.318e-08	6.9505e-08	1.9277e-07	4.9701e-07	1.1973e-06	2.7089e-06	5.7869e-06	1.1734e-05	2.2705e-05	4.214e-05	7.5396e-05	0.00013064	0.0002201	0.00036186	0.0005821	0.00091821	0.0014224	0.002166	0.0032446	0.0047832	0.0069415	0.0099198	0.013964	0.019369	0.026488	0.035731	0.047569	0.062539	0.081235	0.10431	0.13244	0.16634	0.2067	0.25418	0.30935	0.37263	0.4443	0.52445	0.6129	0.70928	0.81293	0.923	1.0384	1.158	1.2803	1.4041	1.5277	1.6499	1.7693	1.8845	1.9944	2.098	2.1944	2.2827	2.3623	2.4327	2.4935	2.5443	2.5848	2.6148	2.6341	2.6425	2.6399	2.6261	2.6011	2.5649	2.5174	2.4589	2.3896	2.3101	2.221	2.1231	2.0174	1.9052	1.7879	1.6671	1.5442	1.421	1.2989	1.1797	1.0645	0.95447	0.85067	0.75375	0.66421	0.5823	0.50807	0.4414	0.38203	0.32956	0.28353	0.24341	0.20865	0.17868	0.15295	0.13094	0.11216	0.096168	0.082558	0.070987	0.061153	0.052802	0.045717	0.039715	0.034641	0.03036	0.026756	0.023724	0.021174	0.019025	0.017208	0.015664	0.014345	0.013212	0.012233	0.011385	0.010649	0.010013	0.0094628	0.0089893	0.0085829	0.0082339	0.0079331	0.0076713	0.0074396	0.0072299	0.0070352	0.0068499	0.00667	0.0064932	0.0063189	0.0061482	0.0059831	0.0058267	0.0056823	0.0055533	0.0054427	0.0053529	0.0052852	0.0052399	0.0052164	0.0052129	0.0052265	0.0052536	0.0052897	0.0053297	0.0053688	0.0054019	0.0054249	0.0054345	0.0054287	0.0054068	0.0053694	0.0053187	0.0052575	0.0051896	0.0051193	0.0050508	0.0049881	0.0049347	0.0048934	0.0048659	0.0048531	0.0048549	0.0048701	0.0048968	0.0049325	0.0049742	0.0050183	0.0050618	0.0051016	0.0051352	0.0051612	0.0051788	0.0051886	0.005192	0.0051914	0.0051899	0.0051908	0.0051978	0.0052141	0.0052423	0.0052842	0.0053404	0.0054105	0.0054928	0.0055848	0.0056835	0.0057853	0.0058866	0.0059841	0.006075	0.0061567	0.0062279	0.0062877	0.0063358	0.0063726	0.0063989	0.0064157	0.0064238	0.0064243	0.0064179	0.0064052	0.0063865	0.006362	0.0063312	0.0062934	0.0062472	0.0061908	0.006122	0.0060382	0.0059371	0.0058164	0.0056747	0.0055112	0.0053261	0.0051208	0.0048974	0.0046591	0.0044092	0.0041516
1.6661e-23	7.0587e-25	2.5697e-26	8.0131e-28	2.1351e-29	4.8741e-31	1.0107e-32	3.1533e-34	3.4224e-35	6.0534e-36	1.0796e-36	1.843e-37	3.0001e-38	4.6541e-39	6.8781e-40	9.6813e-41	1.306e-41	2.3043e-42	4.6898e-42	2.9628e-41	1.8655e-40	1.1235e-39	6.4692e-39	3.5622e-38	1.8765e-37	9.4591e-37	4.5647e-36	2.1095e-35	9.3395e-35	3.9629e-34	1.6123e-33	6.2916e-33	2.356e-32	8.4699e-32	2.9245e-31	9.7025e-31	3.0944e-30	9.4916e-30	2.8013e-29	7.9584e-29	2.1775e-28	5.7403e-28	1.4587e-27	3.5747e-27	8.4518e-27	1.9288e-26	4.2507e-26	9.0495e-26	1.862e-25	3.7042e-25	7.1276e-25	1.3271e-24	2.3918e-24	4.1742e-24	7.0566e-24	1.156e-23	1.8355e-23	2.826e-23	4.2199e-23	6.1133e-23	8.5957e-23	1.1747e-22	1.5753e-22	2.242e-22	5.355e-22	3.7678e-21	4.246e-20	4.9793e-19	5.5715e-18	5.7912e-17	5.5051e-16	4.7382e-15	3.6714e-14	2.5545e-13	1.5956e-12	8.9585e-12	4.5314e-11	2.0713e-10	8.5859e-10	3.2399e-09	1.1176e-08	3.5393e-08	1.0337e-07	2.797e-07	7.046e-07	1.6606e-06	3.6799e-06	7.7073e-06	1.5337e-05	2.9146e-05	5.3174e-05	9.3589e-05	0.00015965	0.00026503	0.00042967	0.00068224	0.0010632	0.0016288	0.0024555	0.0036449	0.0053295	0.0076779	0.0109	0.015254	0.021046	0.028642	0.038462	0.050992	0.066776	0.086416	0.11057	0.13991	0.17516	0.21699	0.26604	0.32285	0.38783	0.46122	0.54306	0.63316	0.73109	0.83617	0.94751	1.0641	1.1845	1.3077	1.432	1.5561	1.6786	1.7981	1.9135	2.0235	2.1272	2.2237	2.3122	2.3921	2.4629	2.5242	2.5755	2.6167	2.6475	2.6676	2.6769	2.6753	2.6625	2.6385	2.6032	2.5567	2.4991	2.4307	2.352	2.2635	2.1661	2.0608	1.9487	1.8314	1.7102	1.5868	1.4628	1.3397	1.2192	1.1025	0.99084	0.88521	0.78636	0.6948	0.61083	0.53453	0.46581	0.40443	0.35002	0.30213	0.26024	0.22382	0.1923	0.16515	0.14184	0.12188	0.10482	0.090258	0.077841	0.067256	0.058238	0.050563	0.044038	0.0385	0.033808	0.029838	0.026482	0.023646	0.021243	0.019202	0.017461	0.015968	0.01468	0.013564	0.012594	0.011749	0.011014	0.010376	0.0098224	0.0093437	0.0089297	0.0085705	0.0082564	0.0079778	0.0077261	0.0074932	0.0072729	0.0070604	0.0068529	0.0066494	0.0064508	0.0062591	0.0060776	0.0059097	0.0057592	0.0056291	0.0055219	0.005439	0.0053808	0.0053462	0.0053335	0.0053395	0.0053602	0.005391	0.0054268	0.0054623	0.0054928	0.0055141	0.005523	0.0055176	0.0054973	0.0054628	0.0054161	0.0053601	0.0052986	0.0052355	0.0051749	0.0051207	0.0050761	0.0050436	0.005025	0.005021	0.0050313	0.0050547	0.0050892	0.0051322	0.0051806	0.005231	0.0052803	0.0053254	0.005364	0.0053949	0.0054173	0.0054321	0.0054405	0.0054451	0.0054487	0.0054546	0.0054661	0.0054862	0.0055174	0.0055613	0.0056185	0.0056886	0.0057701	0.0058608	0.0059579	0.0060581	0.0061581	0.0062545	0.0063446	0.0064259	0.0064968	0.0065562	0.0066038	0.0066397	0.0066645	0.0066791	0.0066841	0.0066806	0.0066691	0.0066504	0.0066248	0.0065923	0.0065529	0.0065058	0.0064497	0.0063829	0.0063034	0.0062085	0.0060961	0.0059639	0.0058106	0.0056355	0.005439	0.0052227	0.0049889	0.0047408	0.0044823	0.0042172
5.9781e-23	2.7126e-24	1.0608e-25	3.5673e-27	1.0367e-28	2.7962e-30	1.1616e-31	1.483e-32	2.9245e-33	5.8301e-34	1.1152e-34	2.0376e-35	3.5542e-36	5.916e-37	9.3931e-38	1.4224e-38	2.0707e-39	4.0484e-40	8.2482e-40	4.8481e-39	2.8488e-38	1.6034e-37	8.6384e-37	4.4564e-36	2.202e-35	1.0426e-34	4.7316e-34	2.0591e-33	8.5953e-33	3.4433e-32	1.3242e-31	4.8914e-31	1.7361e-30	5.9231e-30	1.9435e-29	6.1354e-29	1.8645e-28	5.4563e-28	1.5384e-27	4.1811e-27	1.0958e-26	2.771e-26	6.7633e-26	1.5941e-25	3.6298e-25	7.9887e-25	1.7001e-24	3.4999e-24	6.9729e-24	1.345e-23	2.5128e-23	4.5487e-23	7.9813e-23	1.3579e-22	2.241e-22	3.5885e-22	5.5775e-22	8.4169e-22	1.2336e-21	1.7565e-21	2.4304e-21	3.2712e-21	4.3023e-21	5.7013e-21	9.202e-21	3.1677e-20	2.3718e-19	2.1956e-18	2.0396e-17	1.8142e-16	1.5148e-15	1.1713e-14	8.3056e-14	5.3656e-13	3.1468e-12	1.6733e-11	8.0711e-11	3.537e-10	1.4118e-09	5.1486e-09	1.7217e-08	5.2995e-08	1.5078e-07	3.9825e-07	9.8096e-07	2.2639e-06	4.9192e-06	1.0113e-05	1.9773e-05	3.6952e-05	6.6341e-05	0.00011498	0.00019328	0.00031638	0.00050615	0.00079366	0.0012225	0.0018528	0.0027658	0.0040692	0.0059025	0.0084426	0.011909	0.01657	0.022743	0.030804	0.041185	0.05438	0.070942	0.091478	0.11664	0.14712	0.18361	0.22677	0.27723	0.33551	0.40197	0.47684	0.56011	0.65154	0.75068	0.85684	0.96909	1.0863	1.2074	1.3308	1.4553	1.5795	1.7019	1.8213	1.9365	2.0463	2.1499	2.2462	2.3347	2.4146	2.4856	2.5471	2.5989	2.6406	2.6721	2.693	2.7032	2.7025	2.6907	2.6678	2.6336	2.5883	2.5318	2.4646	2.3869	2.2995	2.203	2.0984	1.987	1.8701	1.7492	1.6257	1.5014	1.3778	1.2564	1.1387	1.0258	0.91867	0.8182	0.72491	0.63911	0.56095	0.49034	0.42709	0.37084	0.32117	0.27758	0.23954	0.20651	0.17796	0.15335	0.13221	0.11408	0.098553	0.08527	0.073912	0.064205	0.055915	0.048842	0.042814	0.037684	0.033323	0.029618	0.026469	0.023788	0.0215	0.019538	0.017849	0.016386	0.015115	0.014006	0.013036	0.012188	0.011447	0.010801	0.010238	0.0097473	0.0093192	0.0089431	0.008609	0.0083074	0.0080297	0.0077685	0.0075183	0.0072756	0.0070389	0.0068087	0.0065869	0.0063767	0.0061819	0.0060062	0.005853	0.0057249	0.0056234	0.0055487	0.0054998	0.0054748	0.0054702	0.0054819	0.0055052	0.0055349	0.0055657	0.005593	0.0056127	0.0056216	0.0056181	0.0056014	0.0055724	0.0055328	0.0054853	0.0054335	0.0053809	0.0053314	0.0052884	0.005255	0.0052334	0.005225	0.0052306	0.0052496	0.005281	0.0053226	0.0053718	0.0054257	0.005481	0.0055345	0.0055836	0.0056261	0.0056607	0.0056872	0.0057062	0.0057193	0.0057288	0.0057374	0.0057483	0.0057644	0.0057885	0.0058229	0.0058689	0.0059272	0.0059974	0.0060781	0.0061674	0.0062627	0.0063608	0.0064587	0.0065531	0.0066412	0.0067207	0.0067898	0.0068473	0.0068928	0.0069262	0.0069479	0.0069586	0.0069589	0.0069496	0.0069314	0.0069049	0.0068704	0.0068283	0.0067784	0.00672	0.0066522	0.0065732	0.006481	0.0063733	0.0062479	0.0061028	0.0059367	0.0057491	0.0055406	0.0053129	0.0050686	0.004811	0.0045441	0.0042719
2.0135e-22	9.7805e-24	4.1127e-25	1.5094e-26	5.2795e-28	2.9206e-29	4.3943e-30	9.6399e-31	2.1393e-31	4.5659e-32	9.3263e-33	1.8218e-33	3.4015e-34	6.0684e-35	1.0341e-35	1.6828e-36	2.6421e-37	5.7193e-38	1.1619e-37	6.3593e-37	3.4906e-36	1.8378e-35	9.2738e-35	4.4865e-34	2.0816e-33	9.2661e-33	3.9586e-32	1.6237e-31	6.3967e-31	2.4214e-30	8.8115e-30	3.0836e-29	1.0382e-28	3.3647e-28	1.05e-27	3.1571e-27	9.1488e-27	2.5566e-26	6.8921e-26	1.7933e-25	4.5059e-25	1.0937e-24	2.566e-24	5.8209e-24	1.2774e-23	2.7131e-23	5.5794e-23	1.1114e-22	2.1454e-22	4.0149e-22	7.2869e-22	1.2832e-21	2.1931e-21	3.6393e-21	5.8659e-21	9.1862e-21	1.3982e-20	2.069e-20	2.9775e-20	4.1681e-20	5.6779e-20	7.5312e-20	9.7523e-20	1.2508e-19	1.7238e-19	3.5515e-19	1.591e-18	1.1101e-17	8.4487e-17	6.3415e-16	4.5652e-15	3.1067e-14	1.9767e-13	1.1658e-12	6.3329e-12	3.1559e-11	1.44e-10	6.0148e-10	2.3021e-09	8.0897e-09	2.6172e-08	7.8203e-08	2.166e-07	5.583e-07	1.3447e-06	3.0401e-06	6.4805e-06	1.3087e-05	2.516e-05	4.6274e-05	8.1821e-05	0.00013976	0.00023167	0.00037419	0.00059108	0.00091579	0.0013949	0.0020923	0.0030939	0.004513	0.0064957	0.0092268	0.012935	0.017896	0.024439	0.032948	0.043866	0.057693	0.074987	0.096358	0.12246	0.15397	0.19158	0.23594	0.28764	0.34718	0.4149	0.49097	0.57537	0.66782	0.76783	0.87469	0.98746	1.105	1.2262	1.3496	1.4739	1.5978	1.7198	1.8387	1.9533	2.0626	2.1657	2.2617	2.3498	2.4296	2.5006	2.5622	2.6142	2.6564	2.6883	2.7099	2.721	2.7212	2.7105	2.6887	2.6558	2.6117	2.5567	2.4908	2.4145	2.3284	2.2332	2.1299	2.0196	1.9036	1.7834	1.6604	1.5363	1.4127	1.291	1.1726	1.0589	0.95071	0.84898	0.75425	0.66691	0.5871	0.5148	0.44983	0.39188	0.34053	0.29532	0.25574	0.22124	0.19131	0.16543	0.14312	0.12392	0.10742	0.093262	0.081115	0.0707	0.061774	0.05413	0.047589	0.041997	0.03722	0.033141	0.029655	0.026671	0.024111	0.021907	0.02	0.018343	0.016898	0.015632	0.014521	0.013545	0.012687	0.011934	0.011274	0.010696	0.010188	0.0097398	0.0093413	0.008982	0.0086525	0.0083445	0.0080518	0.0077698	0.0074964	0.0072314	0.0069766	0.0067349	0.0065102	0.0063064	0.0061271	0.0059749	0.0058514	0.005757	0.0056907	0.0056502	0.0056321	0.0056322	0.0056456	0.0056672	0.0056919	0.0057152	0.0057331	0.0057426	0.0057421	0.0057308	0.0057093	0.0056792	0.0056429	0.0056034	0.0055639	0.0055276	0.0054977	0.0054768	0.0054668	0.005469	0.0054839	0.0055109	0.0055489	0.0055961	0.0056498	0.0057073	0.0057655	0.0058216	0.005873	0.005918	0.0059554	0.0059852	0.0060082	0.0060258	0.0060403	0.0060542	0.0060704	0.0060916	0.0061201	0.0061581	0.0062067	0.0062664	0.0063368	0.0064169	0.0065047	0.0065978	0.0066934	0.0067884	0.0068798	0.0069649	0.0070413	0.0071072	0.0071614	0.0072033	0.0072328	0.00725	0.0072554	0.0072496	0.0072333	0.007207	0.0071714	0.0071268	0.0070737	0.0070118	0.0069408	0.0068596	0.0067667	0.0066603	0.0065382	0.0063984	0.006239	0.0060591	0.0058582	0.0056372	0.0053978	0.0051428	0.0048757	0.0046005	0.0043214
6.3881e-22	3.3282e-23	1.5314e-24	6.9346e-26	5.0963e-27	9.0192e-28	2.1954e-28	5.4012e-29	1.2809e-29	2.9127e-30	6.3451e-31	1.3235e-31	2.6423e-32	5.047e-33	9.2196e-34	1.6107e-34	2.7257e-35	6.5245e-36	1.317e-35	6.7177e-35	3.4479e-34	1.6999e-33	8.0426e-33	3.6526e-32	1.5929e-31	6.673e-31	2.6863e-30	1.0396e-29	3.8689e-29	1.3853e-28	4.7745e-28	1.5845e-27	5.0656e-27	1.5608e-26	4.6372e-26	1.329e-25	3.6759e-25	9.8169e-25	2.5326e-24	6.3143e-24	1.5222e-23	3.5496e-23	8.0106e-23	1.7504e-22	3.7047e-22	7.5989e-22	1.5111e-21	2.9145e-21	5.4545e-21	9.9094e-21	1.7483e-20	2.9965e-20	4.9913e-20	8.083e-20	1.2731e-19	1.9507e-19	2.9088e-19	4.2225e-19	5.9687e-19	8.2181e-19	1.1025e-18	1.4418e-18	1.8411e-18	2.3138e-18	2.9759e-18	4.6393e-18	1.2697e-17	6.2597e-17	3.8419e-16	2.4288e-15	1.5011e-14	8.9064e-14	5.0193e-13	2.664e-12	1.322e-11	6.1005e-11	2.6074e-10	1.0299e-09	3.7569e-09	1.2664e-08	3.9506e-08	1.1432e-07	3.0775e-07	7.7324e-07	1.8201e-06	4.0297e-06	8.4268e-06	1.6719e-05	3.1616e-05	5.7252e-05	9.9757e-05	0.00016803	0.00027482	0.00043827	0.00068395	0.0010476	0.0015788	0.0023449	0.0034362	0.0049712	0.0071023	0.010021	0.013965	0.019216	0.026114	0.035051	0.046474	0.060891	0.078863	0.101	0.12795	0.16039	0.19899	0.24438	0.29713	0.35771	0.42644	0.50344	0.58866	0.68179	0.78232	0.8895	1.0024	1.1199	1.2408	1.3638	1.4875	1.6107	1.7319	1.85	1.9638	2.0723	2.1746	2.2699	2.3576	2.437	2.5077	2.5692	2.6213	2.6637	2.6961	2.7183	2.7301	2.7312	2.7216	2.701	2.6694	2.6268	2.5732	2.509	2.4344	2.3499	2.2564	2.1548	2.046	1.9314	1.8124	1.6904	1.5671	1.4439	1.3224	1.204	1.0898	0.981	0.87838	0.78256	0.69396	0.61277	0.539	0.4725	0.41299	0.36009	0.31336	0.2723	0.2364	0.20514	0.17802	0.15456	0.1343	0.11683	0.10179	0.088848	0.077711	0.068133	0.059899	0.052824	0.046748	0.041532	0.037055	0.033209	0.029899	0.027045	0.024576	0.022431	0.020561	0.018923	0.017483	0.016214	0.015095	0.014106	0.013233	0.012464	0.011785	0.011186	0.010657	0.010184	0.0097594	0.009371	0.0090105	0.0086702	0.008345	0.0080316	0.0077292	0.0074391	0.0071638	0.0069072	0.006673	0.0064649	0.0062859	0.0061377	0.0060205	0.0059336	0.0058745	0.0058398	0.0058254	0.0058265	0.005838	0.005855	0.0058732	0.0058889	0.0058991	0.0059022	0.0058974	0.005885	0.0058661	0.0058426	0.005817	0.0057919	0.00577	0.0057539	0.0057456	0.0057469	0.0057588	0.0057815	0.0058148	0.0058575	0.0059079	0.0059637	0.0060224	0.0060813	0.0061379	0.00619	0.0062361	0.0062754	0.0063081	0.0063348	0.006357	0.0063769	0.0063966	0.0064188	0.0064456	0.0064793	0.0065215	0.0065731	0.0066346	0.0067057	0.0067851	0.0068713	0.006962	0.0070545	0.007146	0.0072336	0.0073146	0.0073868	0.0074483	0.007498	0.0075351	0.0075594	0.007571	0.0075702	0.0075574	0.0075332	0.007498	0.0074525	0.007397	0.0073319	0.0072571	0.0071723	0.0070766	0.0069686	0.0068467	0.006709	0.0065535	0.0063789	0.0061842	0.0059693	0.0057352	0.0054838	0.0052179	0.0049412	0.0046576	0.0043713
1.9231e-21	1.1024e-22	6.462e-24	6.2732e-25	1.2993e-25	3.4989e-26	9.5042e-27	2.4939e-27	6.2866e-28	1.5208e-28	3.529e-29	7.8515e-30	1.6741e-30	3.4196e-31	6.6889e-32	1.2531e-32	2.2843e-33	6.0368e-34	1.2068e-33	5.7421e-33	2.7587e-32	1.275e-31	5.6621e-31	2.4166e-30	9.9164e-30	3.9137e-29	1.4861e-28	5.4318e-28	1.9117e-27	6.4814e-27	2.1177e-26	6.6715e-26	2.0272e-25	5.9446e-25	1.6829e-24	4.6018e-24	1.216e-23	3.1064e-23	7.6756e-23	1.8353e-22	4.2484e-22	9.5254e-22	2.0695e-21	4.3591e-21	8.9051e-21	1.7652e-20	3.3969e-20	6.3481e-20	1.1526e-19	2.0342e-19	3.4907e-19	5.8268e-19	9.4647e-19	1.4966e-18	2.3044e-18	3.4565e-18	5.052e-18	7.1974e-18	9.9975e-18	1.3544e-17	1.79e-17	2.3089e-17	2.9101e-17	3.6008e-17	4.4667e-17	6.0623e-17	1.1575e-16	3.8837e-16	1.8642e-15	9.8898e-15	5.2605e-14	2.723e-13	1.3546e-12	6.4238e-12	2.8852e-11	1.2204e-10	4.8386e-10	1.7921e-09	6.1869e-09	1.9891e-08	5.9569e-08	1.6637e-07	4.3417e-07	1.0615e-06	2.4385e-06	5.2825e-06	1.0832e-05	2.1108e-05	3.9261e-05	7.0013e-05	0.00012025	0.0001998	0.00032261	0.00050823	0.00078402	0.001188	0.0017722	0.0026077	0.0037886	0.0054385	0.0077154	0.010817	0.014987	0.020517	0.027751	0.037087	0.04898	0.06394	0.082527	0.10535	0.13306	0.1663	0.20574	0.25199	0.3056	0.36699	0.43646	0.5141	0.59981	0.69328	0.79395	0.90107	1.0137	1.1308	1.251	1.3732	1.496	1.618	1.7381	1.8551	1.9677	2.0752	2.1765	2.2709	2.3578	2.4366	2.5068	2.5681	2.6202	2.6627	2.6954	2.7181	2.7305	2.7325	2.7238	2.7045	2.6742	2.6331	2.5813	2.5188	2.4461	2.3637	2.2722	2.1726	2.0658	1.9531	1.8358	1.7153	1.5933	1.4711	1.3503	1.2323	1.1182	1.0092	0.90608	0.80955	0.72001	0.63772	0.56272	0.49489	0.434	0.3797	0.33157	0.28913	0.2519	0.21938	0.19106	0.16647	0.14517	0.12675	0.11083	0.097088	0.08522	0.074978	0.066138	0.058512	0.051934	0.04626	0.041364	0.037136	0.03348	0.030311	0.027556	0.025154	0.02305	0.021201	0.019571	0.018129	0.016851	0.015717	0.014711	0.013819	0.013029	0.012329	0.011706	0.011151	0.010652	0.010197	0.0097777	0.0093848	0.0090122	0.0086558	0.0083137	0.0079864	0.0076759	0.0073856	0.0071193	0.0068806	0.0066725	0.0064968	0.006354	0.0062434	0.0061626	0.0061084	0.0060766	0.0060627	0.0060618	0.0060693	0.0060812	0.0060938	0.0061044	0.0061112	0.0061132	0.0061104	0.0061034	0.0060934	0.0060821	0.0060716	0.0060639	0.006061	0.0060644	0.0060755	0.0060952	0.0061238	0.0061608	0.0062055	0.0062563	0.0063114	0.0063686	0.0064257	0.0064806	0.0065316	0.0065775	0.0066179	0.0066528	0.0066832	0.0067103	0.0067361	0.0067623	0.0067911	0.0068244	0.0068639	0.0069109	0.0069662	0.00703	0.0071018	0.0071808	0.0072653	0.0073532	0.0074422	0.0075296	0.0076125	0.0076886	0.0077556	0.0078118	0.007856	0.0078874	0.0079057	0.0079108	0.0079031	0.0078827	0.00785	0.0078055	0.0077496	0.0076828	0.0076053	0.0075171	0.0074179	0.0073069	0.007183	0.0070447	0.0068904	0.0067185	0.0065278	0.0063176	0.0060881	0.0058404	0.0055766	0.0052996	0.005013	0.0047207	0.0044269
5.737e-21	4.3577e-22	5.535e-23	1.3315e-23	3.9538e-24	1.1809e-24	3.414e-25	9.4994e-26	2.5412e-26	6.5323e-27	1.6128e-27	3.8226e-28	8.6944e-29	1.8969e-29	3.9682e-30	7.9625e-31	1.5626e-31	4.5507e-32	8.9827e-32	3.9909e-31	1.7967e-30	7.7933e-30	3.2521e-29	1.3059e-28	5.0478e-28	1.8789e-27	6.7376e-27	2.3284e-26	7.7577e-26	2.493e-25	7.7306e-25	2.3142e-24	6.6905e-24	1.869e-23	5.0468e-23	1.318e-22	3.3302e-22	8.1455e-22	1.9295e-21	4.4284e-21	9.8522e-21	2.1257e-20	4.45e-20	9.0425e-20	1.7844e-19	3.4211e-19	6.3752e-19	1.1552e-18	2.0363e-18	3.4934e-18	5.8345e-18	9.491e-18	1.5042e-17	2.3237e-17	3.5e-17	5.1417e-17	7.3695e-17	1.0308e-16	1.4077e-16	1.8771e-16	2.4449e-16	3.1117e-16	3.8732e-16	4.7295e-16	5.7351e-16	7.2443e-16	1.1085e-15	2.616e-15	9.5017e-15	4.1787e-14	1.9152e-13	8.6828e-13	3.8226e-12	1.6194e-11	6.561e-11	2.5296e-10	9.2401e-10	3.186e-09	1.0339e-08	3.1514e-08	9.0145e-08	2.42e-07	6.1029e-07	1.4482e-06	3.2411e-06	6.8606e-06	1.378e-05	2.636e-05	4.8212e-05	8.4657e-05	0.00014333	0.00023502	0.00037476	0.00058351	0.00089031	0.0013352	0.001973	0.0028777	0.0041473	0.0059099	0.0083283	0.011606	0.015992	0.021784	0.029331	0.039037	0.051358	0.066806	0.085942	0.10937	0.13772	0.17164	0.21177	0.2587	0.31294	0.3749	0.44483	0.5228	0.60868	0.70212	0.80256	0.90924	1.0212	1.1374	1.2566	1.3776	1.4991	1.6197	1.7384	1.8539	1.9651	2.0712	2.1713	2.2646	2.3505	2.4284	2.4981	2.5589	2.6107	2.6532	2.686	2.709	2.722	2.7248	2.7172	2.699	2.6702	2.6307	2.5807	2.5202	2.4497	2.3695	2.2804	2.1831	2.0787	1.9683	1.8532	1.7348	1.6145	1.4939	1.3743	1.2572	1.1437	1.0349	0.93177	0.83491	0.7448	0.66171	0.58575	0.51683	0.45476	0.39922	0.34982	0.30612	0.26765	0.23393	0.20447	0.1788	0.15649	0.13713	0.12035	0.1058	0.093203	0.082289	0.072835	0.064644	0.057548	0.051399	0.046067	0.041439	0.037417	0.033914	0.030856	0.028177	0.025823	0.023747	0.02191	0.020279	0.018828	0.017535	0.016383	0.015357	0.014443	0.01363	0.012905	0.012257	0.011674	0.011145	0.01066	0.010209	0.0097845	0.0093816	0.0089973	0.008631	0.0082839	0.0079587	0.0076589	0.0073879	0.0071486	0.0069431	0.006772	0.0066347	0.0065291	0.0064522	0.0064	0.0063683	0.0063526	0.0063486	0.0063524	0.0063607	0.0063707	0.0063806	0.006389	0.0063955	0.0063999	0.0064029	0.0064054	0.0064086	0.0064138	0.0064224	0.0064356	0.0064544	0.0064794	0.006511	0.0065488	0.0065924	0.0066406	0.006692	0.0067449	0.0067976	0.0068486	0.0068967	0.0069411	0.0069815	0.0070183	0.0070522	0.0070844	0.0071164	0.0071497	0.0071858	0.0072262	0.0072722	0.0073246	0.0073839	0.0074502	0.007523	0.0076015	0.0076841	0.007769	0.0078541	0.0079367	0.0080144	0.0080849	0.008146	0.0081961	0.008234	0.008259	0.0082706	0.0082687	0.0082535	0.008225	0.0081836	0.0081295	0.0080631	0.0079848	0.0078947	0.0077928	0.007679	0.0075524	0.0074122	0.007257	0.0070856	0.0068968	0.0066895	0.0064634	0.0062189	0.0059573	0.0056808	0.0053922	0.0050952	0.0047938	0.004492
2.1693e-20	3.555e-21	9.8398e-22	3.2102e-22	1.0499e-22	3.3297e-23	1.0183e-23	2.9995e-24	8.5047e-25	2.3202e-25	6.0871e-26	1.5351e-26	3.7199e-27	8.6575e-28	1.9345e-28	4.1528e-29	8.7696e-30	2.8078e-30	5.4581e-30	2.2665e-29	9.5723e-29	3.9015e-28	1.5317e-27	5.7933e-27	2.1119e-26	7.4228e-26	2.5164e-25	8.2313e-25	2.5992e-24	7.9259e-24	2.3351e-23	6.6494e-23	1.831e-22	4.8775e-22	1.2576e-21	3.1396e-21	7.5934e-21	1.78e-20	4.0459e-20	8.9215e-20	1.9093e-19	3.9678e-19	8.01e-19	1.5716e-18	2.9981e-18	5.5638e-18	1.0048e-17	1.7667e-17	3.0257e-17	5.049e-17	8.2128e-17	1.3027e-16	2.0158e-16	3.044e-16	4.4873e-16	6.4597e-16	9.0836e-16	1.2481e-15	1.6763e-15	2.2011e-15	2.8264e-15	3.5507e-15	4.3668e-15	5.2688e-15	6.2847e-15	7.6199e-15	1.0262e-14	1.8503e-14	5.0382e-14	1.8038e-13	7.1008e-13	2.8287e-12	1.1068e-11	4.2024e-11	1.5378e-10	5.3986e-10	1.8112e-09	5.7877e-09	1.7563e-08	5.0495e-08	1.3731e-07	3.5285e-07	8.5686e-07	1.968e-06	4.2811e-06	8.8398e-06	1.7372e-05	3.2593e-05	5.8584e-05	0.00010127	0.00016903	0.00027353	0.00043092	0.00066345	0.0010018	0.0014879	0.0021791	0.0031522	0.0045087	0.0063806	0.0089352	0.012381	0.01697	0.023006	0.030841	0.040881	0.053585	0.069463	0.089071	0.113	0.14189	0.17635	0.217	0.26441	0.31907	0.38134	0.45145	0.52943	0.61512	0.70818	0.80801	0.91386	1.0248	1.1398	1.2576	1.377	1.4968	1.6157	1.7326	1.8464	1.9559	2.0604	2.159	2.2509	2.3356	2.4125	2.4813	2.5416	2.5929	2.6352	2.6681	2.6913	2.7048	2.7083	2.7016	2.6847	2.6573	2.6195	2.5714	2.513	2.4448	2.3672	2.2807	2.1861	2.0845	1.9768	1.8643	1.7484	1.6305	1.5119	1.394	1.2783	1.1659	1.0579	0.95513	0.85835	0.76803	0.6845	0.60787	0.53812	0.47509	0.41849	0.36798	0.32315	0.28355	0.24871	0.21818	0.19148	0.1682	0.14793	0.13029	0.11496	0.10163	0.090042	0.079967	0.071204	0.06358	0.056942	0.05116	0.046117	0.041714	0.037862	0.034483	0.031513	0.028892	0.026573	0.024513	0.022679	0.021042	0.019578	0.018267	0.017095	0.016046	0.015108	0.014269	0.013518	0.012843	0.012231	0.011673	0.011157	0.010676	0.010223	0.0097935	0.009386	0.0090006	0.0086392	0.0083045	0.0079996	0.0077274	0.0074898	0.0072877	0.0071208	0.0069872	0.0068844	0.0068087	0.0067563	0.0067231	0.0067052	0.0066988	0.006701	0.0067089	0.0067205	0.0067341	0.0067485	0.0067632	0.0067778	0.0067924	0.0068074	0.0068235	0.0068414	0.0068619	0.0068855	0.006913	0.0069445	0.0069801	0.0070195	0.007062	0.0071067	0.0071526	0.0071985	0.0072435	0.0072869	0.0073283	0.0073678	0.0074057	0.0074428	0.0074799	0.0075182	0.0075587	0.0076025	0.0076504	0.0077031	0.0077612	0.0078247	0.0078937	0.0079675	0.0080453	0.0081258	0.0082074	0.008288	0.0083654	0.0084373	0.0085016	0.0085562	0.0085996	0.0086306	0.0086484	0.0086527	0.0086432	0.0086199	0.0085829	0.0085324	0.0084685	0.0083915	0.0083016	0.008199	0.0080835	0.0079549	0.0078128	0.0076562	0.0074841	0.0072956	0.0070897	0.0068656	0.0066235	0.0063638	0.006088	0.0057985	0.0054981	0.0051904	0.0048793	0.0045688
1.6869e-19	5.3165e-20	1.8979e-20	6.7691e-21	2.345e-21	7.8483e-22	2.5345e-22	7.8929e-23	2.3691e-23	6.8504e-24	1.9074e-24	5.1118e-25	1.318e-25	3.2678e-26	7.7891e-27	1.7867e-27	4.0579e-28	1.4246e-28	2.7209e-28	1.0572e-27	4.1935e-27	1.608e-26	5.9461e-26	2.121e-25	7.3006e-25	2.4258e-24	7.7837e-24	2.4129e-23	7.2292e-23	2.0942e-22	5.8683e-22	1.5914e-21	4.1781e-21	1.0625e-20	2.6184e-20	6.2559e-20	1.4497e-19	3.2601e-19	7.1176e-19	1.5093e-18	3.1101e-18	6.2306e-18	1.214e-17	2.3019e-17	4.2488e-17	7.6382e-17	1.3379e-16	2.2843e-16	3.8035e-16	6.1782e-16	9.7942e-16	1.5159e-15	2.2916e-15	3.3846e-15	4.8859e-15	6.8958e-15	9.5185e-15	1.2854e-14	1.6985e-14	2.1971e-14	2.7826e-14	3.4516e-14	4.196e-14	5.0066e-14	5.8935e-14	6.9622e-14	8.7046e-14	1.3074e-13	2.7427e-13	7.8766e-13	2.6432e-12	9.2624e-12	3.2346e-11	1.1055e-10	3.6664e-10	1.1742e-09	3.6187e-09	1.07e-08	3.028e-08	8.1818e-08	2.1069e-07	5.1635e-07	1.2034e-06	2.6675e-06	5.6272e-06	1.1314e-05	2.1722e-05	3.9932e-05	7.0494e-05	0.00011992	0.0001973	0.00031517	0.0004907	0.00074738	0.0011174	0.0016446	0.0023885	0.0034287	0.0048697	0.0068468	0.0095311	0.013134	0.017913	0.024172	0.032267	0.042604	0.055641	0.071885	0.091884	0.11623	0.14552	0.18037	0.22137	0.26906	0.3239	0.38622	0.4562	0.53388	0.61905	0.71136	0.81021	0.91485	1.0244	1.1377	1.2537	1.3712	1.489	1.6059	1.7208	1.8325	1.9401	2.0427	2.1395	2.2299	2.3132	2.3889	2.4567	2.5161	2.5669	2.6088	2.6416	2.665	2.6789	2.683	2.6773	2.6615	2.6356	2.5995	2.5534	2.4973	2.4316	2.3566	2.273	2.1815	2.083	1.9784	1.869	1.756	1.6408	1.5248	1.4092	1.2954	1.1846	1.0778	0.97586	0.87958	0.78946	0.70583	0.62886	0.55856	0.4948	0.43737	0.38593	0.34011	0.2995	0.26365	0.23211	0.20445	0.18024	0.15909	0.14062	0.12451	0.11046	0.098207	0.087511	0.078171	0.070012	0.062878	0.056636	0.051168	0.046371	0.042156	0.038444	0.035168	0.032267	0.029691	0.027396	0.025345	0.023509	0.021861	0.02038	0.019049	0.017854	0.016781	0.015819	0.014955	0.014177	0.013474	0.012834	0.012247	0.011703	0.011195	0.010716	0.010265	0.0098388	0.0094392	0.0090679	0.0087275	0.0084203	0.0081484	0.0079127	0.0077132	0.0075485	0.0074165	0.0073141	0.0072379	0.0071843	0.0071496	0.0071307	0.0071244	0.0071281	0.0071393	0.007156	0.0071764	0.0071991	0.0072231	0.0072475	0.007272	0.0072964	0.007321	0.0073459	0.0073717	0.0073988	0.0074274	0.0074579	0.0074903	0.0075243	0.0075597	0.007596	0.0076328	0.0076698	0.0077067	0.0077437	0.0077809	0.007819	0.0078584	0.0078998	0.0079439	0.0079913	0.0080425	0.0080976	0.008157	0.0082205	0.0082882	0.0083596	0.0084341	0.008511	0.0085891	0.0086669	0.0087426	0.0088143	0.0088799	0.0089373	0.0089848	0.0090207	0.009044	0.0090539	0.00905	0.0090321	0.009	0.0089539	0.0088938	0.0088197	0.0087318	0.0086303	0.0085151	0.0083861	0.0082431	0.0080856	0.007913	0.0077243	0.007519	0.0072962	0.0070556	0.0067975	0.0065227	0.0062328	0.00593	0.0056175	0.0052988	0.0049776	0.0046579
2.1293e-18	8.2816e-19	3.2079e-19	1.2087e-19	4.4081e-20	1.554e-20	5.2923e-21	1.7402e-21	5.5223e-22	1.6903e-22	4.9885e-23	1.4188e-23	3.8869e-24	1.0253e-24	2.6036e-25	6.3734e-26	1.5562e-26	5.9729e-27	1.1186e-26	4.0709e-26	1.5184e-25	5.4843e-25	1.9127e-24	6.4424e-24	2.0964e-23	6.5933e-23	2.0049e-22	5.8969e-22	1.6783e-21	4.6241e-21	1.2339e-20	3.19e-20	7.9945e-20	1.943e-19	4.5815e-19	1.0486e-18	2.3308e-18	5.0334e-18	1.0565e-17	2.1567e-17	4.2831e-17	8.2794e-17	1.5585e-16	2.8581e-16	5.1087e-16	8.904e-16	1.5139e-15	2.512e-15	4.0695e-15	6.4391e-15	9.9552e-15	1.5045e-14	2.2232e-14	3.2136e-14	4.5455e-14	6.2932e-14	8.5313e-14	1.1327e-13	1.4735e-13	1.8784e-13	2.3472e-13	2.876e-13	3.4572e-13	4.0819e-13	4.7508e-13	5.5112e-13	6.5855e-13	8.7996e-13	1.4988e-12	3.4535e-12	9.7813e-12	3.0101e-11	9.4115e-11	2.9084e-10	8.7801e-10	2.5743e-09	7.3037e-09	2.0001e-08	5.2751e-08	1.3374e-07	3.2535e-07	7.5834e-07	1.6917e-06	3.6096e-06	7.3676e-06	1.4396e-05	2.6967e-05	4.8521e-05	8.4069e-05	0.00014069	0.00022814	0.00035977	0.00055373	0.0008347	0.0012363	0.0018041	0.0025998	0.0037051	0.0052276	0.0073052	0.010112	0.013862	0.018813	0.025274	0.033597	0.044191	0.057508	0.074049	0.094355	0.119	0.14857	0.18366	0.22483	0.27259	0.32736	0.38946	0.45903	0.53607	0.62039	0.71158	0.80909	0.91214	1.0199	1.1312	1.2451	1.3603	1.4758	1.5903	1.7028	1.8123	1.9177	2.0182	2.1131	2.2016	2.2834	2.3577	2.4243	2.4828	2.5329	2.5743	2.6068	2.6303	2.6444	2.6491	2.6442	2.6296	2.6052	2.5709	2.5268	2.4731	2.4101	2.338	2.2575	2.1693	2.0741	1.973	1.8671	1.7575	1.6455	1.5324	1.4196	1.3082	1.1994	1.0943	0.99367	0.89834	0.80881	0.72546	0.64849	0.57794	0.51373	0.45569	0.40351	0.35688	0.31538	0.27863	0.24618	0.21762	0.19254	0.17055	0.15128	0.13442	0.11967	0.10675	0.095436	0.085521	0.076825	0.069191	0.062484	0.056582	0.051384	0.046797	0.042741	0.039147	0.035955	0.03311	0.030568	0.028289	0.026242	0.024399	0.022737	0.021238	0.019886	0.018668	0.017571	0.016584	0.015694	0.014891	0.014161	0.013495	0.012881	0.012312	0.01178	0.01128	0.01081	0.01037	0.00996	0.0095817	0.0092374	0.0089287	0.0086568	0.0084218	0.0082229	0.0080585	0.0079261	0.0078228	0.0077455	0.0076912	0.0076567	0.0076391	0.0076356	0.0076437	0.0076608	0.0076844	0.0077125	0.007743	0.0077745	0.0078058	0.0078359	0.0078644	0.0078913	0.0079167	0.0079408	0.0079641	0.0079871	0.0080101	0.0080333	0.0080572	0.0080819	0.0081076	0.0081346	0.0081634	0.0081942	0.0082278	0.0082645	0.008305	0.0083495	0.0083983	0.0084515	0.0085089	0.0085704	0.0086355	0.0087039	0.008775	0.0088482	0.008923	0.0089984	0.0090735	0.009147	0.0092173	0.0092827	0.0093412	0.009391	0.0094303	0.0094578	0.0094724	0.0094733	0.0094601	0.0094326	0.0093907	0.0093344	0.0092638	0.0091789	0.0090798	0.0089663	0.0088385	0.0086962	0.0085391	0.0083668	0.0081786	0.007974	0.0077524	0.0075133	0.0072568	0.0069832	0.0066936	0.0063896	0.0060738	0.0057491	0.0054191	0.0050875	0.0047581
2.7036e-17	1.1327e-17	4.6223e-18	1.8291e-18	7.0088e-19	2.5991e-19	9.3222e-20	3.2324e-20	1.083e-20	3.5045e-21	1.0947e-21	3.2996e-22	9.5923e-23	2.6884e-23	7.2622e-24	1.895e-24	4.9722e-25	2.0794e-25	3.8116e-25	1.3008e-24	4.568e-24	1.5562e-23	5.1254e-23	1.6322e-22	5.0278e-22	1.4986e-21	4.3238e-21	1.2081e-20	3.2703e-20	8.5799e-20	2.1826e-19	5.3862e-19	1.29e-18	2.9995e-18	6.7751e-18	1.4872e-17	3.1739e-17	6.5889e-17	1.3311e-16	2.6181e-16	5.016e-16	9.3648e-16	1.7046e-15	3.0262e-15	5.2427e-15	8.8665e-15	1.4645e-14	2.3634e-14	3.7281e-14	5.7504e-14	8.6766e-14	1.2811e-13	1.8519e-13	2.6214e-13	3.6352e-13	4.9398e-13	6.5802e-13	8.5947e-13	1.1011e-12	1.3839e-12	1.7069e-12	2.0667e-12	2.4575e-12	2.8728e-12	3.3098e-12	3.7869e-12	4.3947e-12	5.4539e-12	7.9832e-12	1.5067e-11	3.578e-11	9.6219e-11	2.6968e-10	7.5662e-10	2.0888e-09	5.6305e-09	1.4758e-08	3.7518e-08	9.2338e-08	2.1967e-07	5.0442e-07	1.1165e-06	2.3792e-06	4.8772e-06	9.6142e-06	1.8228e-05	3.3268e-05	5.8529e-05	9.9461e-05	0.00016367	0.00026156	0.00040724	0.00061977	0.00092497	0.0013578	0.0019656	0.0028116	0.0039801	0.0055804	0.007753	0.010673	0.014558	0.019665	0.026302	0.034822	0.045628	0.059168	0.075935	0.096458	0.12129	0.15101	0.18618	0.22733	0.27494	0.32941	0.39101	0.45988	0.53597	0.61909	0.70883	0.80462	0.90573	1.0113	1.1203	1.2317	1.3444	1.4572	1.5691	1.679	1.7858	1.8888	1.987	2.0797	2.1663	2.2462	2.319	2.3843	2.4416	2.4909	2.5317	2.5639	2.5873	2.6017	2.6069	2.6028	2.5893	2.5664	2.5339	2.4919	2.4407	2.3804	2.3114	2.2342	2.1495	2.058	1.9607	1.8585	1.7526	1.6442	1.5346	1.4249	1.3164	1.2101	1.1071	1.0083	0.91437	0.82585	0.74316	0.66654	0.59606	0.53169	0.47327	0.42058	0.3733	0.33109	0.29355	0.26029	0.23092	0.20502	0.18224	0.16222	0.14464	0.12919	0.11563	0.10371	0.093223	0.083993	0.07586	0.068686	0.062348	0.056744	0.051778	0.047372	0.043453	0.039959	0.036836	0.034036	0.031519	0.029251	0.027203	0.02535	0.023673	0.022155	0.020782	0.019542	0.018422	0.017411	0.016498	0.01567	0.014916	0.014226	0.013589	0.012997	0.012445	0.011927	0.011442	0.01099	0.010572	0.010187	0.0098393	0.0095284	0.0092551	0.009019	0.0088189	0.0086532	0.0085195	0.0084152	0.0083377	0.0082843	0.008252	0.0082381	0.0082397	0.0082537	0.0082772	0.0083074	0.0083414	0.008377	0.0084122	0.0084453	0.0084754	0.008502	0.0085248	0.008544	0.0085602	0.0085738	0.0085856	0.0085965	0.0086073	0.0086187	0.0086318	0.0086473	0.0086662	0.0086893	0.0087174	0.008751	0.0087906	0.0088363	0.0088878	0.0089449	0.0090068	0.0090729	0.0091422	0.009214	0.0092872	0.0093612	0.0094353	0.0095084	0.0095798	0.0096481	0.0097122	0.0097702	0.0098207	0.0098617	0.0098917	0.0099093	0.0099137	0.009904	0.00988	0.0098413	0.0097881	0.0097204	0.0096381	0.0095414	0.0094302	0.0093044	0.0091639	0.0090084	0.0088376	0.0086509	0.008448	0.0082282	0.0079913	0.0077369	0.0074652	0.0071768	0.0068729	0.0065554	0.0062267	0.00589	0.0055488	0.0052066	0.0048674
3.0205e-16	1.3294e-16	5.6835e-17	2.3572e-17	9.4774e-18	3.6921e-18	1.3929e-18	5.0861e-19	1.7968e-19	6.1381e-20	2.0267e-20	6.4649e-21	1.9915e-21	5.9215e-22	1.6993e-22	4.7207e-23	1.3305e-23	6.041e-24	1.0823e-23	3.468e-23	1.1479e-22	3.6934e-22	1.1503e-21	3.4681e-21	1.0126e-20	2.864e-20	7.8507e-20	2.0864e-19	5.3784e-19	1.3453e-18	3.2667e-18	7.7037e-18	1.7652e-17	3.9317e-17	8.5163e-17	1.7948e-16	3.6819e-16	7.3554e-16	1.4316e-15	2.716e-15	5.0248e-15	9.0695e-15	1.5978e-14	2.7486e-14	4.6193e-14	7.587e-14	1.2184e-13	1.9139e-13	2.9419e-13	4.4268e-13	6.5235e-13	9.4179e-13	1.3325e-12	1.8483e-12	2.5143e-12	3.3554e-12	4.3943e-12	5.649e-12	7.1306e-12	8.8401e-12	1.0767e-11	1.2887e-11	1.5165e-11	1.7558e-11	2.0043e-11	2.2677e-11	2.5794e-11	3.0529e-11	4.0272e-11	6.4512e-11	1.2891e-10	3.0111e-10	7.552e-10	1.9285e-09	4.8897e-09	1.2173e-08	2.9601e-08	7.0101e-08	1.6141e-07	3.6086e-07	7.8256e-07	1.6443e-06	3.3445e-06	6.5787e-06	1.2508e-05	2.2981e-05	4.0818e-05	7.0156e-05	0.00011686	0.00018902	0.00029764	0.00045755	0.0006887	0.001018	0.0014816	0.0021283	0.0030233	0.0042523	0.0059266	0.008188	0.011213	0.015218	0.020463	0.02725	0.035931	0.046903	0.060607	0.077524	0.098169	0.12308	0.15281	0.18789	0.22884	0.27609	0.33001	0.39085	0.45871	0.53355	0.61514	0.70309	0.79684	0.89566	0.99872	1.1051	1.2137	1.3234	1.4333	1.5423	1.6493	1.7533	1.8536	1.9492	2.0396	2.124	2.202	2.273	2.3368	2.393	2.4412	2.4813	2.5131	2.5363	2.5509	2.5566	2.5533	2.5409	2.5194	2.4888	2.449	2.4003	2.3429	2.2771	2.2034	2.1224	2.0348	1.9414	1.8433	1.7415	1.6371	1.5312	1.4251	1.3199	1.2166	1.1162	1.0196	0.92744	0.84034	0.75871	0.68279	0.61271	0.54847	0.48995	0.43697	0.38925	0.34648	0.3083	0.27435	0.24424	0.21761	0.1941	0.17337	0.15509	0.13899	0.1248	0.11228	0.10124	0.091485	0.082858	0.07522	0.068448	0.062436	0.05709	0.052328	0.048078	0.044277	0.040867	0.037802	0.035038	0.032541	0.030278	0.028226	0.026362	0.024669	0.023133	0.021741	0.02048	0.01934	0.018309	0.017374	0.016526	0.015751	0.015039	0.014381	0.01377	0.013199	0.012666	0.012168	0.011705	0.011278	0.010888	0.010535	0.010221	0.0099445	0.0097058	0.0095035	0.009336	0.0092013	0.0090971	0.0090209	0.0089702	0.0089419	0.008933	0.0089401	0.0089596	0.0089881	0.0090222	0.0090587	0.0090948	0.0091284	0.0091579	0.0091822	0.0092007	0.0092136	0.0092213	0.0092245	0.0092242	0.0092218	0.0092184	0.0092156	0.0092149	0.0092177	0.0092253	0.0092391	0.0092598	0.0092882	0.0093245	0.0093687	0.0094203	0.0094785	0.0095423	0.0096104	0.0096815	0.0097544	0.009828	0.0099011	0.0099729	0.010042	0.010109	0.010171	0.010227	0.010277	0.010318	0.010348	0.010367	0.010373	0.010365	0.010343	0.010306	0.010255	0.010188	0.010107	0.010012	0.0099021	0.0097779	0.0096392	0.0094857	0.009317	0.0091328	0.0089325	0.0087156	0.0084817	0.0082304	0.0079617	0.0076759	0.0073737	0.0070564	0.006726	0.0063851	0.0060368	0.0056845	0.005332	0.004983
2.915e-15	1.3408e-15	5.9932e-16	2.6015e-16	1.096e-16	4.4794e-17	1.7751e-17	6.8167e-18	2.5357e-18	9.132e-19	3.1826e-19	1.0729e-19	3.4969e-20	1.1015e-20	3.3534e-21	9.9063e-22	2.9978e-22	1.472e-22	2.5745e-22	7.7546e-22	2.4226e-21	7.3715e-21	2.174e-20	6.2137e-20	1.7219e-19	4.6277e-19	1.2068e-18	3.0545e-18	7.5077e-18	1.7927e-17	4.1601e-17	9.3869e-17	2.0603e-16	4.4008e-16	9.152e-16	1.8539e-15	3.6596e-15	7.0432e-15	1.3221e-14	2.4219e-14	4.3311e-14	7.565e-14	1.2912e-13	2.1543e-13	3.5152e-13	5.6121e-13	8.77e-13	1.342e-12	2.0118e-12	2.9554e-12	4.2566e-12	6.0125e-12	8.3322e-12	1.1332e-11	1.5132e-11	1.9843e-11	2.5563e-11	3.236e-11	4.0266e-11	4.9262e-11	5.9272e-11	7.0159e-11	8.1731e-11	9.3771e-11	1.0613e-10	1.1895e-10	1.3333e-10	1.5294e-10	1.8818e-10	2.6621e-10	4.5519e-10	9.2123e-10	2.0593e-09	4.7863e-09	1.1179e-08	2.5813e-08	5.8484e-08	1.2954e-07	2.7999e-07	5.8983e-07	1.2101e-06	2.4161e-06	4.6912e-06	8.8515e-06	1.622e-05	2.8857e-05	4.9844e-05	8.3636e-05	0.00013648	0.00021693	0.00033654	0.00051082	0.00076054	0.0011136	0.0016074	0.0022921	0.0032342	0.0045209	0.0062647	0.008608	0.011728	0.015839	0.0212	0.02811	0.036915	0.048004	0.061809	0.078798	0.099469	0.12434	0.15394	0.18877	0.22932	0.276	0.32914	0.38895	0.45554	0.52882	0.60858	0.69442	0.7858	0.88202	0.98226	1.0856	1.1911	1.2977	1.4044	1.5101	1.614	1.715	1.8123	1.9052	1.993	2.0751	2.151	2.2201	2.2823	2.3371	2.3842	2.4235	2.4548	2.4778	2.4924	2.4986	2.496	2.4848	2.4648	2.436	2.3985	2.3524	2.2979	2.2354	2.1653	2.0881	2.0046	1.9155	1.8217	1.7242	1.6241	1.5224	1.4202	1.3187	1.2187	1.1213	1.0273	0.93738	0.8521	0.77189	0.69704	0.62769	0.56388	0.50554	0.4525	0.40455	0.3614	0.32274	0.28822	0.25749	0.23021	0.20603	0.18464	0.16572	0.14899	0.1342	0.12111	0.10953	0.099262	0.090151	0.082057	0.074856	0.06844	0.062715	0.057597	0.053014	0.0489	0.045199	0.041861	0.038844	0.036109	0.033625	0.031365	0.029308	0.027433	0.025727	0.024176	0.022767	0.02149	0.020333	0.019285	0.018333	0.017466	0.016672	0.015941	0.015265	0.014636	0.014049	0.013501	0.01299	0.012517	0.012082	0.011685	0.011326	0.011007	0.010727	0.010485	0.010281	0.010112	0.0099771	0.0098742	0.0098008	0.0097538	0.0097299	0.0097256	0.0097369	0.0097596	0.0097898	0.0098236	0.0098577	0.0098892	0.0099158	0.009936	0.009949	0.0099545	0.009953	0.0099452	0.0099324	0.0099162	0.0098984	0.009881	0.0098659	0.0098551	0.0098503	0.009853	0.0098644	0.0098852	0.0099156	0.0099553	0.010004	0.01006	0.010122	0.010189	0.010259	0.01033	0.010401	0.010471	0.010538	0.010602	0.010662	0.010716	0.010763	0.010802	0.010831	0.01085	0.010855	0.010847	0.010825	0.010788	0.010736	0.010668	0.010587	0.010491	0.01038	0.010256	0.010118	0.0099655	0.0097985	0.0096167	0.0094194	0.0092061	0.0089761	0.0087291	0.0084647	0.008183	0.0078842	0.0075693	0.0072396	0.0068972	0.0065448	0.0061855	0.0058228	0.0054604	0.0051019
2.4343e-14	1.1678e-14	5.4497e-15	2.4726e-15	1.0901e-15	4.6678e-16	1.9403e-16	7.8252e-17	3.0606e-17	1.1604e-17	4.2624e-18	1.5163e-18	5.2215e-19	1.7399e-19	5.6109e-20	1.7606e-20	5.7177e-21	3.0237e-21	5.158e-21	1.4623e-20	4.3172e-20	1.244e-19	3.4788e-19	9.4395e-19	2.4861e-18	6.3575e-18	1.5792e-17	3.812e-17	8.9454e-17	2.0416e-16	4.5336e-16	9.7998e-16	2.0629e-15	4.2307e-15	8.457e-15	1.6485e-14	3.135e-14	5.8188e-14	1.0546e-13	1.8672e-13	3.2311e-13	5.4669e-13	9.0483e-13	1.4656e-12	2.3241e-12	3.6099e-12	5.4942e-12	8.197e-12	1.1993e-11	1.7214e-11	2.4249e-11	3.3537e-11	4.5552e-11	6.0787e-11	7.9721e-11	1.0279e-10	1.3032e-10	1.6254e-10	1.9947e-10	2.4093e-10	2.8651e-10	3.3552e-10	3.871e-10	4.4027e-10	4.943e-10	5.4946e-10	6.0902e-10	6.8384e-10	8.032e-10	1.0392e-09	1.5612e-09	2.7536e-09	5.4667e-09	1.1538e-08	2.4844e-08	5.3366e-08	1.131e-07	2.3528e-07	4.792e-07	9.5433e-07	1.8572e-06	3.5301e-06	6.5509e-06	1.1863e-05	2.0955e-05	3.609e-05	6.0599e-05	9.9233e-05	0.00015859	0.00024764	0.00037847	0.00056721	0.00083542	0.0012119	0.0017353	0.0024567	0.0034439	0.004785	0.0065931	0.0090108	0.012214	0.016416	0.021871	0.028874	0.037763	0.048919	0.062761	0.079742	0.10034	0.12506	0.15438	0.18881	0.22878	0.27467	0.3268	0.38535	0.45039	0.52184	0.59948	0.68292	0.77163	0.86494	0.96208	1.0622	1.1643	1.2674	1.3706	1.4729	1.5734	1.6711	1.7653	1.8553	1.9404	2.0199	2.0935	2.1607	2.2211	2.2744	2.3203	2.3587	2.3894	2.4121	2.4268	2.4333	2.4315	2.4214	2.4029	2.376	2.3407	2.2973	2.2458	2.1867	2.1203	2.0471	1.9678	1.8832	1.7939	1.701	1.6054	1.5081	1.4102	1.3127	1.2164	1.1224	1.0314	0.94404	0.86095	0.78253	0.70909	0.64081	0.57773	0.51984	0.467	0.41904	0.3757	0.33671	0.30176	0.27053	0.2427	0.21794	0.19595	0.17644	0.15913	0.14377	0.13014	0.11804	0.10728	0.0977	0.089163	0.081542	0.074729	0.068629	0.063158	0.058241	0.053813	0.049818	0.046204	0.042927	0.039949	0.037238	0.034765	0.032507	0.030445	0.028563	0.026847	0.025285	0.023865	0.022577	0.021408	0.020346	0.01938	0.018497	0.017687	0.016939	0.016245	0.015599	0.014997	0.014435	0.013913	0.013429	0.012985	0.01258	0.012215	0.011891	0.011607	0.011362	0.011156	0.010986	0.010853	0.010752	0.010682	0.010638	0.010617	0.010615	0.010628	0.01065	0.010677	0.010705	0.010732	0.010753	0.010767	0.010773	0.010771	0.010759	0.01074	0.010715	0.010685	0.010653	0.010621	0.010592	0.010567	0.010549	0.010539	0.010539	0.01055	0.010572	0.010604	0.010645	0.010695	0.010752	0.010814	0.010878	0.010944	0.01101	0.011073	0.011134	0.01119	0.01124	0.011284	0.011319	0.011345	0.011361	0.011364	0.011354	0.011329	0.011289	0.011235	0.011164	0.01108	0.01098	0.010867	0.01074	0.0106	0.010446	0.010279	0.010098	0.0099032	0.009693	0.0094672	0.009225	0.008966	0.0086896	0.008396	0.0080856	0.0077592	0.0074183	0.007065	0.0067021	0.0063327	0.0059603	0.0055885	0.0052211
1.7678e-13	8.8322e-14	4.2974e-14	2.0353e-14	9.3774e-15	4.2011e-15	1.8292e-15	7.7369e-16	3.1773e-16	1.2663e-16	4.8953e-17	1.8349e-17	6.6661e-18	2.3462e-18	8.0031e-19	2.6644e-19	9.2813e-20	5.2632e-20	8.7509e-20	2.3382e-19	6.5316e-19	1.7849e-18	4.7397e-18	1.2226e-17	3.0646e-17	7.467e-17	1.7693e-16	4.0783e-16	9.1493e-16	1.9985e-15	4.252e-15	8.816e-15	1.782e-14	3.5132e-14	6.7585e-14	1.2692e-13	2.3279e-13	4.1718e-13	7.3081e-13	1.252e-12	2.0985e-12	3.4429e-12	5.5314e-12	8.706e-12	1.343e-11	2.0312e-11	3.0135e-11	4.3871e-11	6.2698e-11	8.7997e-11	1.2133e-10	1.6442e-10	2.1904e-10	2.8697e-10	3.6988e-10	4.6916e-10	5.8579e-10	7.2021e-10	8.7214e-10	1.0405e-09	1.2234e-09	1.4181e-09	1.621e-09	1.8284e-09	2.0375e-09	2.2483e-09	2.4699e-09	2.7315e-09	3.1092e-09	3.7808e-09	5.1383e-09	8.0173e-09	1.4149e-08	2.7034e-08	5.3598e-08	1.0723e-07	2.1317e-07	4.1795e-07	8.0513e-07	1.5213e-06	2.817e-06	5.1108e-06	9.0827e-06	1.5808e-05	2.6937e-05	4.4931e-05	7.3351e-05	0.00011722	0.00018345	0.00028141	0.00042365	0.00062691	0.00091347	0.001313	0.0018651	0.0026218	0.0036517	0.0050435	0.0069103	0.0093938	0.012668	0.016944	0.02247	0.029534	0.038468	0.049639	0.063452	0.080344	0.10077	0.12522	0.15414	0.188	0.2272	0.27212	0.32302	0.38007	0.44332	0.51269	0.58795	0.66872	0.75449	0.84463	0.9384	1.035	1.1334	1.2329	1.3324	1.431	1.5278	1.6221	1.713	1.7999	1.882	1.9589	2.0301	2.0951	2.1536	2.2053	2.25	2.2875	2.3174	2.3399	2.3546	2.3614	2.3604	2.3513	2.3343	2.3093	2.2763	2.2355	2.1871	2.1315	2.0688	1.9998	1.9249	1.8447	1.7602	1.672	1.5812	1.4886	1.3952	1.302	1.2098	1.1194	1.0317	0.94732	0.86677	0.79049	0.71879	0.65188	0.58984	0.53267	0.48028	0.43253	0.38921	0.35007	0.31484	0.28324	0.25496	0.22971	0.2072	0.18716	0.16932	0.15344	0.1393	0.12671	0.11548	0.10546	0.096493	0.088466	0.081268	0.074801	0.068982	0.063735	0.058996	0.054705	0.050812	0.047273	0.044049	0.041105	0.038415	0.035952	0.033699	0.031637	0.029752	0.028032	0.026465	0.02504	0.023745	0.022569	0.021498	0.02052	0.019624	0.018799	0.018035	0.017325	0.016664	0.016047	0.015472	0.014937	0.014443	0.01399	0.013577	0.013206	0.012877	0.012589	0.012342	0.012135	0.011966	0.011833	0.011734	0.011666	0.011623	0.011603	0.011599	0.011608	0.011624	0.011643	0.01166	0.011673	0.011679	0.011677	0.011665	0.011643	0.011613	0.011575	0.011533	0.011487	0.01144	0.011396	0.011357	0.011325	0.011302	0.011289	0.011288	0.011298	0.011319	0.01135	0.01139	0.011437	0.011489	0.011545	0.011601	0.011657	0.011711	0.011761	0.011806	0.011844	0.011874	0.011895	0.011905	0.011904	0.011889	0.01186	0.011816	0.011756	0.011681	0.01159	0.011485	0.011365	0.011233	0.011087	0.01093	0.01076	0.010577	0.010382	0.010173	0.0099504	0.0097125	0.0094588	0.0091886	0.0089014	0.0085972	0.0082763	0.0079397	0.0075889	0.0072259	0.0068536	0.0064751	0.0060939	0.0057137	0.005338
1.1226e-12	5.8336e-13	2.9555e-13	1.4591e-13	7.016e-14	3.2841e-14	1.4957e-14	6.6251e-15	2.8525e-15	1.1933e-15	4.8478e-16	1.9118e-16	7.3159e-17	2.7156e-17	9.7842e-18	3.4526e-18	1.2891e-18	7.8038e-19	1.2641e-18	3.1877e-18	8.436e-18	2.1893e-17	5.5283e-17	1.3577e-16	3.2434e-16	7.5403e-16	1.7065e-15	3.7616e-15	8.0782e-15	1.691e-14	3.4517e-14	6.8732e-14	1.3358e-13	2.5346e-13	4.6981e-13	8.5102e-13	1.5071e-12	2.6107e-12	4.4253e-12	7.3435e-12	1.1935e-11	1.9007e-11	2.9671e-11	4.5423e-11	6.8222e-11	1.0057e-10	1.4557e-10	2.0697e-10	2.8916e-10	3.9714e-10	5.3639e-10	7.1269e-10	9.3187e-10	1.1995e-09	1.5204e-09	1.8983e-09	2.3355e-09	2.832e-09	3.3858e-09	3.9921e-09	4.6432e-09	5.3292e-09	6.0382e-09	6.7576e-09	7.4777e-09	8.1975e-09	8.9393e-09	9.7765e-09	1.0892e-08	1.2691e-08	1.6022e-08	2.2587e-08	3.5711e-08	6.1724e-08	1.1242e-07	2.0932e-07	3.9083e-07	7.2398e-07	1.3233e-06	2.38e-06	4.2075e-06	7.3076e-06	1.2468e-05	2.0896e-05	3.4402e-05	5.5629e-05	8.8353e-05	0.00013784	0.00021129	0.00031843	0.00047226	0.00069005	0.00099478	0.0014169	0.0019966	0.0027869	0.0038569	0.0052951	0.0072143	0.0097544	0.013087	0.017418	0.02299	0.030085	0.039021	0.050154	0.063874	0.080598	0.10076	0.12482	0.1532	0.18634	0.22463	0.26838	0.31786	0.37319	0.43443	0.50149	0.57412	0.65198	0.73458	0.82131	0.91147	1.0043	1.0989	1.1944	1.29	1.3847	1.4778	1.5685	1.6559	1.7394	1.8185	1.8926	1.9612	2.024	2.0805	2.1306	2.1739	2.2103	2.2396	2.2616	2.2763	2.2835	2.2831	2.2752	2.2596	2.2365	2.2058	2.1677	2.1225	2.0703	2.0115	1.9466	1.8761	1.8007	1.7209	1.6377	1.5518	1.4641	1.3754	1.2867	1.1988	1.1124	1.0283	0.94717	0.86947	0.79564	0.726	0.66076	0.60003	0.54385	0.49216	0.44485	0.40175	0.36264	0.3273	0.29546	0.26685	0.24121	0.21827	0.19777	0.17946	0.16312	0.14852	0.13548	0.12381	0.11336	0.104	0.095582	0.088013	0.081193	0.075035	0.069465	0.064418	0.059835	0.055664	0.051862	0.04839	0.045212	0.042302	0.039632	0.037184	0.03494	0.032884	0.031003	0.029287	0.027722	0.026298	0.025002	0.023821	0.022744	0.021757	0.02085	0.020011	0.019233	0.018508	0.017832	0.017201	0.016613	0.016067	0.015563	0.015102	0.014682	0.014305	0.013971	0.01368	0.013431	0.013223	0.013054	0.012921	0.012822	0.012751	0.012706	0.012681	0.012671	0.01267	0.012674	0.012679	0.01268	0.012675	0.012661	0.012638	0.012606	0.012564	0.012514	0.012458	0.012399	0.012339	0.012281	0.012228	0.012181	0.012144	0.012116	0.012101	0.012096	0.012103	0.01212	0.012146	0.012179	0.012218	0.01226	0.012303	0.012345	0.012385	0.012421	0.01245	0.012472	0.012486	0.012489	0.01248	0.012458	0.012422	0.012371	0.012304	0.012221	0.012123	0.012009	0.011882	0.01174	0.011586	0.011421	0.011244	0.011056	0.010858	0.010647	0.010425	0.010189	0.0099397	0.009675	0.0093944	0.0090973	0.0087835	0.0084535	0.0081079	0.0077484	0.007377	0.0069965	0.0066101	0.0062212	0.0058335	0.0054505
6.2692e-12	3.3838e-12	1.7827e-12	9.1618e-13	4.5911e-13	2.2422e-13	1.0667e-13	4.9406e-14	2.227e-14	9.7641e-15	4.1623e-15	1.7244e-15	6.9399e-16	2.7126e-16	1.0309e-16	3.8518e-17	1.5403e-17	9.9082e-18	1.5632e-17	3.7257e-17	9.353e-17	2.3083e-16	5.5511e-16	1.2997e-15	2.9636e-15	6.5831e-15	1.4251e-14	3.008e-14	6.1923e-14	1.2439e-13	2.439e-13	4.6705e-13	8.7379e-13	1.5978e-12	2.8571e-12	4.9979e-12	8.5564e-12	1.4343e-11	2.3551e-11	3.7898e-11	5.9788e-11	9.2514e-11	1.4047e-10	2.0937e-10	3.0646e-10	4.4072e-10	6.2292e-10	8.657e-10	1.1834e-09	1.5917e-09	2.1075e-09	2.7476e-09	3.5286e-09	4.4652e-09	5.5694e-09	6.8494e-09	8.308e-09	9.9419e-09	1.1741e-08	1.3687e-08	1.5756e-08	1.7915e-08	2.0129e-08	2.2361e-08	2.4583e-08	2.6791e-08	2.9036e-08	3.149e-08	3.4558e-08	3.9104e-08	4.6839e-08	6.1019e-08	8.7661e-08	1.3761e-07	2.2999e-07	3.9792e-07	6.975e-07	1.2221e-06	2.1238e-06	3.646e-06	6.1715e-06	1.0291e-05	1.6902e-05	2.7343e-05	4.3574e-05	6.8411e-05	0.00010582	0.00016129	0.00024228	0.00035884	0.00052438	0.00075668	0.0010793	0.0015233	0.0021295	0.0029515	0.0040583	0.0055384	0.0075029	0.01009	0.013467	0.017835	0.023429	0.030521	0.039418	0.050461	0.064024	0.080501	0.10031	0.12387	0.15159	0.18388	0.22109	0.26351	0.31138	0.36482	0.42385	0.48838	0.55819	0.63293	0.71215	0.79527	0.88162	0.97047	1.061	1.1525	1.244	1.3347	1.4238	1.5106	1.5944	1.6746	1.7505	1.8216	1.8876	1.948	2.0024	2.0507	2.0926	2.1279	2.1564	2.178	2.1926	2.2001	2.2005	2.1936	2.1796	2.1583	2.1299	2.0946	2.0525	2.0038	1.9489	1.8882	1.8222	1.7515	1.6766	1.5984	1.5175	1.4348	1.351	1.267	1.1836	1.1014	1.0212	0.94359	0.86901	0.7979	0.73059	0.6673	0.60816	0.55322	0.50247	0.45582	0.41314	0.37425	0.33896	0.30703	0.27823	0.25232	0.22904	0.20817	0.18947	0.17271	0.1577	0.14425	0.13219	0.12135	0.11161	0.10283	0.094914	0.087756	0.081273	0.075391	0.070044	0.065174	0.060731	0.056669	0.052949	0.049539	0.046408	0.043531	0.040888	0.03846	0.036232	0.034191	0.032323	0.030617	0.029062	0.027644	0.02635	0.02517	0.024088	0.023094	0.022177	0.021326	0.020535	0.019797	0.019108	0.018464	0.017864	0.017308	0.016795	0.016325	0.015899	0.015517	0.015179	0.014884	0.014632	0.014422	0.01425	0.014114	0.01401	0.013934	0.013881	0.013845	0.013821	0.013805	0.013791	0.013776	0.013756	0.013728	0.013692	0.013646	0.013592	0.013529	0.013461	0.013389	0.013315	0.013244	0.013176	0.013115	0.013062	0.013019	0.012987	0.012966	0.012955	0.012955	0.012964	0.012979	0.013	0.013024	0.013049	0.013073	0.013095	0.013111	0.013122	0.013124	0.013116	0.013097	0.013066	0.01302	0.01296	0.012884	0.012792	0.012683	0.012559	0.01242	0.012268	0.012103	0.011926	0.011739	0.011542	0.011336	0.01112	0.010894	0.010657	0.010409	0.010148	0.0098722	0.0095818	0.0092755	0.0089532	0.008615	0.0082617	0.0078947	0.0075162	0.0071289	0.0067357	0.0063403	0.0059461	0.0055567
3.0961e-11	1.7335e-11	9.4834e-12	5.0668e-12	2.6424e-12	1.3445e-12	6.6714e-13	3.2265e-13	1.5203e-13	6.9758e-14	3.1155e-14	1.3538e-14	5.7214e-15	2.3513e-15	9.4116e-16	3.7201e-16	1.5916e-16	1.0829e-16	1.6641e-16	3.7539e-16	8.9509e-16	2.1038e-15	4.8251e-15	1.0787e-14	2.351e-14	4.9971e-14	1.0362e-13	2.0972e-13	4.1441e-13	7.9989e-13	1.5087e-12	2.7819e-12	5.0167e-12	8.8516e-12	1.5288e-11	2.5856e-11	4.2843e-11	6.9578e-11	1.108e-10	1.7307e-10	2.6532e-10	3.9933e-10	5.9033e-10	8.575e-10	1.2244e-09	1.7194e-09	2.3752e-09	3.2293e-09	4.3226e-09	5.6987e-09	7.4022e-09	9.4764e-09	1.1961e-08	1.4891e-08	1.8289e-08	2.2168e-08	2.6525e-08	3.1343e-08	3.6582e-08	4.2189e-08	4.8089e-08	5.4196e-08	6.0415e-08	6.6652e-08	7.2836e-08	7.8957e-08	8.5131e-08	9.1728e-08	9.9595e-08	1.1044e-07	1.275e-07	1.5661e-07	2.0806e-07	2.9944e-07	4.6029e-07	7.3926e-07	1.2152e-06	2.0133e-06	3.3296e-06	5.4657e-06	8.8783e-06	1.425e-05	2.2587e-05	3.5355e-05	5.4654e-05	8.3456e-05	0.0001259	0.00018768	0.00027648	0.00040267	0.00057998	0.00082666	0.0011667	0.0016318	0.0022632	0.0031146	0.0042549	0.0057715	0.0077741	0.010397	0.013804	0.01819	0.023781	0.030838	0.039656	0.050559	0.063902	0.080061	0.099425	0.12239	0.14934	0.18065	0.21664	0.25758	0.30368	0.35505	0.4117	0.47354	0.54035	0.6118	0.68747	0.7668	0.84919	0.93393	1.0203	1.1075	1.1947	1.2813	1.3663	1.4492	1.5293	1.6059	1.6785	1.7466	1.8098	1.8677	1.92	1.9665	2.0069	2.041	2.0687	2.0899	2.1044	2.1122	2.1132	2.1074	2.0948	2.0755	2.0494	2.0168	1.9778	1.9326	1.8816	1.8251	1.7636	1.6976	1.6277	1.5545	1.4787	1.4011	1.3224	1.2432	1.1645	1.0867	1.0105	0.93661	0.86538	0.79723	0.7325	0.6714	0.61409	0.56063	0.51105	0.46528	0.42322	0.38474	0.34966	0.3178	0.28895	0.26288	0.23938	0.21823	0.19921	0.18212	0.16677	0.15296	0.14054	0.12936	0.11927	0.11016	0.10191	0.094435	0.087645	0.081465	0.075831	0.070685	0.065976	0.06166	0.057698	0.054058	0.05071	0.047628	0.044792	0.042182	0.039784	0.037582	0.035564	0.033717	0.032029	0.030488	0.029081	0.027794	0.026616	0.025532	0.024533	0.023607	0.022746	0.021944	0.021194	0.020492	0.019837	0.019227	0.018661	0.01814	0.017662	0.01723	0.016842	0.016499	0.0162	0.015943	0.015727	0.015549	0.015405	0.015291	0.015203	0.015134	0.015081	0.015038	0.015	0.014962	0.014922	0.014877	0.014824	0.014763	0.014694	0.014619	0.014537	0.014452	0.014365	0.014279	0.014197	0.014121	0.014052	0.013992	0.013942	0.013902	0.013872	0.013851	0.013839	0.013833	0.013832	0.013834	0.013837	0.013839	0.013837	0.013831	0.013817	0.013795	0.013762	0.013718	0.01366	0.013587	0.013499	0.013395	0.013275	0.013138	0.012987	0.012821	0.012642	0.012452	0.012251	0.012041	0.011823	0.011597	0.011363	0.011121	0.01087	0.010609	0.010336	0.01005	0.0097499	0.0094351	0.009105	0.0087596	0.0083997	0.0080265	0.0076422	0.0072492	0.0068506	0.0064498	0.0060503	0.0056555
1.3598e-10	7.8869e-11	4.4744e-11	2.4817e-11	1.3451e-11	7.1202e-12	3.6796e-12	1.8555e-12	9.1253e-13	4.3752e-13	2.0441e-13	9.3019e-14	4.1216e-14	1.7782e-14	7.4866e-15	3.1278e-15	1.43e-15	1.0243e-15	1.5332e-15	3.2788e-15	7.4349e-15	1.6666e-14	3.6508e-14	7.8045e-14	1.6282e-13	3.3163e-13	6.5966e-13	1.282e-12	2.435e-12	4.5224e-12	8.2159e-12	1.4606e-11	2.5422e-11	4.3336e-11	7.2382e-11	1.1851e-10	1.9028e-10	2.9972e-10	4.6339e-10	7.0346e-10	1.049e-09	1.5373e-09	2.2149e-09	3.1387e-09	4.3761e-09	6.0058e-09	8.1162e-09	1.0804e-08	1.4174e-08	1.833e-08	2.3376e-08	2.9408e-08	3.651e-08	4.4745e-08	5.415e-08	6.473e-08	7.6455e-08	8.9255e-08	1.0302e-07	1.176e-07	1.328e-07	1.4842e-07	1.6424e-07	1.8003e-07	1.9566e-07	2.111e-07	2.2661e-07	2.4295e-07	2.6175e-07	2.862e-07	3.2202e-07	3.7911e-07	4.7401e-07	6.3382e-07	9.0193e-07	1.3468e-06	2.0746e-06	3.2478e-06	5.111e-06	8.0277e-06	1.2531e-05	1.9396e-05	2.9733e-05	4.5128e-05	6.7811e-05	0.0001009	0.00014869	0.00021704	0.00031388	0.0004498	0.0006389	0.00089975	0.0012568	0.0017421	0.002397	0.0032753	0.0044453	0.0059931	0.0080259	0.010675	0.014098	0.018482	0.024045	0.031036	0.039736	0.050452	0.063518	0.079289	0.09813	0.12041	0.14649	0.1767	0.21135	0.25069	0.29489	0.34405	0.39817	0.45717	0.52083	0.58886	0.66083	0.73625	0.81453	0.89504	0.97707	1.0599	1.1428	1.2251	1.306	1.3848	1.461	1.534	1.6032	1.6682	1.7286	1.784	1.8341	1.8786	1.9175	1.9504	1.9772	1.9979	2.0123	2.0204	2.0221	2.0173	2.0062	1.9887	1.9649	1.935	1.8991	1.8574	1.8102	1.758	1.7009	1.6397	1.5747	1.5065	1.4359	1.3634	1.2897	1.2156	1.1415	1.0683	0.99634	0.92631	0.85861	0.79363	0.73168	0.67299	0.61772	0.56597	0.51776	0.47307	0.43184	0.39395	0.35927	0.32764	0.29887	0.27278	0.24917	0.22784	0.2086	0.19125	0.17561	0.1615	0.14878	0.13729	0.1269	0.11748	0.10894	0.10117	0.094092	0.087634	0.081728	0.076319	0.071357	0.066797	0.062603	0.05874	0.05518	0.051899	0.048874	0.046087	0.043521	0.041161	0.038995	0.037009	0.035191	0.033527	0.032006	0.030612	0.029335	0.02816	0.027076	0.026072	0.02514	0.02427	0.023457	0.022697	0.021984	0.021319	0.020699	0.020124	0.019594	0.01911	0.01867	0.018275	0.017925	0.017618	0.017353	0.017127	0.016937	0.016779	0.016649	0.016541	0.016452	0.016375	0.016305	0.01624	0.016174	0.016106	0.016033	0.015954	0.015869	0.015777	0.015681	0.015582	0.015481	0.015381	0.015284	0.015192	0.015106	0.015027	0.014958	0.014897	0.014845	0.014802	0.014765	0.014735	0.014709	0.014685	0.014661	0.014636	0.014608	0.014574	0.014532	0.014481	0.014419	0.014345	0.014257	0.014154	0.014035	0.013901	0.01375	0.013584	0.013403	0.013209	0.013003	0.012786	0.01256	0.012327	0.012087	0.011841	0.011589	0.01133	0.011064	0.010789	0.010504	0.010208	0.0098986	0.0095757	0.0092385	0.0088868	0.0085212	0.0081431	0.0077541	0.0073568	0.0069541	0.0065492	0.0061455	0.0057463
5.3411e-10	3.2046e-10	1.8827e-10	1.0825e-10	6.0888e-11	3.3484e-11	1.7996e-11	9.4471e-12	4.8423e-12	2.4222e-12	1.182e-12	5.624e-13	2.6085e-13	1.1796e-13	5.2175e-14	2.3021e-14	1.1229e-14	8.4295e-15	1.2294e-14	2.4963e-14	5.3901e-14	1.1539e-13	2.4178e-13	4.9497e-13	9.8996e-13	1.9349e-12	3.6972e-12	6.9091e-12	1.2632e-11	2.2605e-11	3.9609e-11	6.7984e-11	1.1435e-10	1.8856e-10	3.0495e-10	4.8392e-10	7.5379e-10	1.153e-09	1.7327e-09	2.5591e-09	3.7163e-09	5.3085e-09	7.4617e-09	1.0325e-08	1.407e-08	1.889e-08	2.4995e-08	3.2609e-08	4.1959e-08	5.327e-08	6.6752e-08	8.2588e-08	1.0092e-07	1.2185e-07	1.4539e-07	1.7152e-07	2.001e-07	2.3094e-07	2.6375e-07	2.9817e-07	3.3379e-07	3.7016e-07	4.068e-07	4.433e-07	4.794e-07	5.1509e-07	5.5091e-07	5.8831e-07	6.3031e-07	6.8244e-07	7.5425e-07	8.6149e-07	1.0294e-06	1.2977e-06	1.727e-06	2.4096e-06	3.483e-06	5.1506e-06	7.7085e-06	1.1584e-05	1.7386e-05	2.5978e-05	3.8572e-05	5.6864e-05	8.3206e-05	0.00012084	0.00017422	0.00024936	0.00035438	0.00050011	0.0007009	0.00097565	0.0013491	0.0018535	0.0025303	0.0034329	0.0046286	0.0062019	0.0082571	0.010921	0.014346	0.01871	0.024222	0.031118	0.039663	0.050147	0.062885	0.078207	0.096455	0.11797	0.14308	0.17211	0.20532	0.24293	0.28511	0.33195	0.38343	0.43948	0.49988	0.56437	0.63254	0.70395	0.77804	0.85423	0.93185	1.0103	1.0887	1.1666	1.2433	1.318	1.3903	1.4596	1.5254	1.5872	1.6446	1.6975	1.7453	1.788	1.8252	1.8569	1.8828	1.903	1.9172	1.9255	1.9279	1.9242	1.9145	1.8988	1.8773	1.85	1.8172	1.7789	1.7356	1.6874	1.6348	1.5782	1.5181	1.455	1.3895	1.3221	1.2535	1.1843	1.1151	1.0464	0.9788	0.91278	0.84876	0.7871	0.72811	0.67202	0.61899	0.56913	0.5225	0.47909	0.43887	0.40175	0.36763	0.33639	0.30785	0.28187	0.25828	0.23688	0.2175	0.19998	0.18413	0.16979	0.15682	0.14507	0.13441	0.12473	0.11592	0.10789	0.10055	0.093837	0.087681	0.082027	0.076826	0.072037	0.067622	0.063548	0.059786	0.056314	0.053107	0.050149	0.047421	0.044909	0.042599	0.040477	0.03853	0.036746	0.035111	0.033611	0.032234	0.030967	0.029797	0.028714	0.027707	0.026769	0.025891	0.025069	0.024298	0.023576	0.022901	0.022271	0.021688	0.021149	0.020656	0.020207	0.019803	0.019443	0.019125	0.018846	0.018604	0.018396	0.018218	0.018064	0.01793	0.017813	0.017706	0.017606	0.01751	0.017413	0.017315	0.017214	0.017109	0.017	0.016887	0.016772	0.016656	0.01654	0.016427	0.016318	0.016214	0.016116	0.016025	0.015942	0.015866	0.015797	0.015734	0.015676	0.015621	0.015568	0.015515	0.015459	0.015399	0.015334	0.01526	0.015176	0.015081	0.014973	0.014852	0.014715	0.014564	0.014396	0.014214	0.014016	0.013805	0.013582	0.013347	0.013104	0.012853	0.012596	0.012333	0.012067	0.011796	0.01152	0.011238	0.01095	0.010653	0.010346	0.010028	0.0096977	0.0093539	0.0089967	0.0086265	0.0082444	0.0078521	0.0074517	0.0070462	0.0066384	0.0062317	0.0058292
1.8865e-09	1.1693e-09	7.1042e-10	4.2286e-10	2.4646e-10	1.406e-10	7.8466e-11	4.282e-11	2.2839e-11	1.1901e-11	6.0562e-12	3.0083e-12	1.4583e-12	6.9024e-13	3.2031e-13	1.4913e-13	7.7475e-14	6.0674e-14	8.6264e-14	1.6658e-13	3.4293e-13	7.0206e-13	1.4092e-12	2.7669e-12	5.313e-12	9.98e-12	1.8345e-11	3.3013e-11	5.818e-11	1.0045e-10	1.6999e-10	2.8207e-10	4.5909e-10	7.3324e-10	1.1497e-09	1.7704e-09	2.6785e-09	3.9833e-09	5.8249e-09	8.3793e-09	1.1862e-08	1.6534e-08	2.2696e-08	3.0698e-08	4.0926e-08	5.3801e-08	6.9767e-08	8.9276e-08	1.1277e-07	1.4067e-07	1.7334e-07	2.1107e-07	2.5406e-07	3.024e-07	3.5602e-07	4.1476e-07	4.7825e-07	5.4601e-07	6.1741e-07	6.9171e-07	7.6808e-07	8.4563e-07	9.2352e-07	1.0011e-06	1.0778e-06	1.1539e-06	1.2304e-06	1.3099e-06	1.3978e-06	1.503e-06	1.6405e-06	1.8341e-06	2.1204e-06	2.5544e-06	3.2173e-06	4.2283e-06	5.759e-06	8.0555e-06	1.1466e-05	1.6481e-05	2.3782e-05	3.4317e-05	4.9393e-05	7.0809e-05	0.00010103	0.00014342	0.00020256	0.00028463	0.00039792	0.00055345	0.00076581	0.0010541	0.0014433	0.0019657	0.0026625	0.0035866	0.0048041	0.0063972	0.0084671	0.011136	0.014548	0.018876	0.024315	0.031088	0.039445	0.049659	0.062022	0.076842	0.094435	0.11512	0.13919	0.16695	0.19862	0.23443	0.27451	0.31893	0.36769	0.42069	0.47776	0.53863	0.60294	0.67027	0.74011	0.81192	0.88509	0.959	1.033	1.1065	1.1789	1.2495	1.3178	1.3834	1.4456	1.5042	1.5588	1.609	1.6545	1.6952	1.7308	1.7612	1.7863	1.8059	1.82	1.8285	1.8314	1.8287	1.8204	1.8066	1.7873	1.7626	1.7328	1.6979	1.6582	1.6141	1.5658	1.5138	1.4585	1.4004	1.3399	1.2776	1.2141	1.1498	1.0854	1.0213	0.95811	0.89618	0.83594	0.77772	0.72183	0.66848	0.61785	0.57006	0.52518	0.48323	0.4442	0.40802	0.37464	0.34393	0.31578	0.29005	0.26659	0.24523	0.22583	0.20821	0.19223	0.17773	0.16457	0.15261	0.14174	0.13183	0.12279	0.11453	0.10696	0.10001	0.093629	0.087752	0.082333	0.077332	0.072711	0.06844	0.06449	0.060837	0.057459	0.054338	0.051456	0.048799	0.04635	0.044097	0.042027	0.040125	0.038378	0.036774	0.035298	0.033937	0.032681	0.031516	0.030433	0.029424	0.028479	0.027593	0.026762	0.025982	0.02525	0.024565	0.023926	0.023333	0.022784	0.02228	0.02182	0.021404	0.021029	0.020694	0.020396	0.020133	0.0199	0.019694	0.019511	0.019347	0.019196	0.019056	0.018923	0.018793	0.018666	0.018538	0.018409	0.018279	0.018147	0.018014	0.01788	0.017747	0.017617	0.017489	0.017365	0.017246	0.017133	0.017025	0.016923	0.016826	0.016735	0.016646	0.01656	0.016475	0.016388	0.016298	0.016204	0.016102	0.015993	0.015873	0.015741	0.015597	0.015439	0.015267	0.01508	0.014878	0.014662	0.014433	0.01419	0.013937	0.013674	0.013404	0.013127	0.012846	0.012562	0.012275	0.011985	0.011692	0.011395	0.011093	0.010784	0.010467	0.01014	0.0098019	0.0094521	0.0090901	0.0087162	0.0083312	0.0079366	0.0075345	0.0071273	0.0067179	0.0063094	0.0059048
