1.8758e-85	2.3313e-84	2.7577e-83	3.1047e-82	3.3263e-81	3.3913e-80	3.2902e-79	3.0375e-78	2.6684e-77	2.2306e-76	1.7745e-75	1.3434e-74	9.6796e-74	6.6384e-73	4.3338e-72	2.6934e-71	1.5938e-70	8.981e-70	4.8196e-69	2.4636e-68	1.1997e-67	5.5664e-67	2.4613e-66	1.0373e-65	4.1673e-65	1.5963e-64	5.8316e-64	2.0319e-63	6.7543e-63	2.1423e-62	6.4847e-62	1.8736e-61	5.1683e-61	1.3613e-60	3.4244e-60	8.2283e-60	1.8889e-59	4.1434e-59	8.6858e-59	1.7404e-58	3.3336e-58	6.1051e-58	1.0691e-57	1.7905e-57	2.8681e-57	4.3946e-57	6.4417e-57	9.0339e-57	1.2122e-56	1.5564e-56	1.9123e-56	2.2486e-56	2.5303e-56	2.725e-56	2.8087e-56	2.7707e-56	2.6158e-56	2.3636e-56	2.0439e-56	1.6915e-56	1.3395e-56	1.0151e-56	7.3606e-57	5.1064e-57	3.3891e-57	2.1517e-57	1.3067e-57	7.589e-58	4.2148e-58	2.2382e-58	1.1363e-58	5.5141e-59	2.5574e-59	1.1334e-59	4.7994e-60	1.9414e-60	7.5002e-61	2.7671e-61	9.7468e-62	3.2774e-62	1.0518e-62	3.2209e-63	9.4106e-64	2.6227e-64	6.971e-65	1.7669e-65	4.3009e-66	1.6504e-66	1.3185e-65	2.345e-64	3.9448e-63	6.1886e-62	9.1625e-61	1.3903e-59	3.1258e-58	1.5092e-56	1.0134e-54	6.6458e-53	3.9391e-51	2.0857e-49	9.8512e-48	4.1511e-46	1.5614e-44	5.2453e-43	1.5752e-41	4.2324e-40	1.0187e-38	2.1993e-37	4.2657e-36	7.4516e-35	1.1785e-33	1.7132e-32	2.3953e-31	3.5962e-30	6.661e-29	1.507e-27	3.5729e-26	7.8915e-25	1.5469e-23	2.6515e-22	3.9639e-21	5.1763e-20	5.9224e-19	5.9585e-18	5.292e-17	4.166e-16	2.9191e-15	1.8282e-14	1.0279e-13	5.2102e-13	2.3917e-12	9.9868e-12	3.8104e-11	1.3345e-10	4.3095e-10	1.2891e-09	3.5884e-09	9.3366e-09	2.281e-08	5.2561e-08	1.1475e-07	2.3843e-07	4.7375e-07	9.0439e-07	1.6666e-06	2.9783e-06	5.1824e-06	8.8101e-06	1.4667e-05	2.3947e-05	3.8363e-05	6.0298e-05	9.2965e-05	0.00014057	0.00020847	0.00030339	0.00043365	0.00060947	0.00084337	0.0011505	0.0015494	0.0020618	0.0027137	0.0035349	0.0045593	0.005824	0.0073691	0.0092367	0.011469	0.014108	0.017192	0.020756	0.024828	0.029428	0.034562	0.040228	0.046403	0.05305	0.060114	0.067518	0.075169	0.082952	0.090741	0.098394	0.10576	0.11269	0.11903	0.12464	0.12938	0.13313	0.13581	0.13735	0.1377	0.13685	0.13483	0.13169	0.1275	0.12236	0.11639	0.10973	0.10254	0.09496	0.087149	0.079256	0.071421	0.06377	0.056414	0.049442	0.042928	0.036922	0.031456	0.026544	0.022184	0.018359	0.015045	0.012205	0.0098	0.0077867	0.0061207	0.0047581	0.0036571	0.0027785	0.0020861	0.0015476	0.0011344	0.0008217	0.00058831	0.00041648	0.00029165	0.00020209	0.0001386	9.4058e-05	6.3125e-05	4.1841e-05	2.7334e-05	1.7552e-05	1.1041e-05	6.7764e-06	4.0407e-06	2.3302e-06	1.2936e-06	6.8817e-07	3.4925e-07	1.6836e-07	7.6778e-08	3.2993e-08	1.3311e-08	5.0252e-09	1.7696e-09	5.7974e-10	1.7629e-10	4.9681e-11	1.2965e-11	3.1346e-12	7.0335e-13	1.4698e-13	2.875e-14	5.2978e-15	9.253e-16	1.5382e-16	2.4344e-17	3.6533e-18	5.1581e-19	6.787e-20	8.2427e-21	9.1613e-22	9.2528e-23	8.4451e-24	6.9367e-25	5.1141e-26	3.3811e-27	2.0078e-28	1.0765e-29	5.2663e-31	2.3889e-32	1.0251e-33	4.2334e-35	1.6909e-36	6.4649e-38	2.3195e-39	7.649e-41	2.2807e-42	6.0796e-44	1.4384e-45	3.0065e-47	5.5329e-49	8.9437e-51	1.2673e-52	1.5718e-54	1.705e-56	1.6246e-58	1.4085e-60	1.3576e-62	2.4288e-64	7.961e-66	2.951e-67	1.0426e-68	3.415e-70	1.0329e-71	2.8831e-73	7.4236e-75	1.763e-76	3.8609e-78	7.7961e-80	1.4514e-81	2.4914e-83	3.9431e-85	5.7546e-87	7.7457e-89	9.6177e-91	1.102e-92	1.1655e-94	1.1383e-96	1.0271e-98	8.5675e-101	6.6102e-103	4.7205e-105
1.3188e-81	1.5308e-80	1.6931e-79	1.7839e-78	1.7905e-77	1.712e-76	1.5593e-75	1.3529e-74	1.1181e-73	8.8033e-73	6.6032e-72	4.7189e-71	3.2132e-70	2.0849e-69	1.2893e-68	7.5987e-68	4.2692e-67	2.2868e-66	1.168e-65	5.6892e-65	2.6432e-64	1.1716e-63	4.9547e-63	1.9997e-62	7.7037e-62	2.8333e-61	9.9505e-61	3.3375e-60	1.0693e-59	3.2734e-59	9.5756e-59	2.6773e-58	7.1561e-58	1.8289e-57	4.47e-57	1.045e-56	2.3371e-56	5.0013e-56	1.0242e-55	2.0076e-55	3.767e-55	6.7675e-55	1.1642e-54	1.9179e-54	3.0263e-54	4.5742e-54	6.6233e-54	9.1883e-54	1.2213e-53	1.5556e-53	1.8987e-53	2.221e-53	2.4898e-53	2.675e-53	2.7544e-53	2.7184e-53	2.5712e-53	2.3309e-53	2.025e-53	1.6861e-53	1.3453e-53	1.0286e-53	7.5358e-54	5.2896e-54	3.557e-54	2.2913e-54	1.4138e-54	8.3544e-55	4.7275e-55	2.5613e-55	1.3285e-55	6.596e-56	3.1342e-56	1.425e-56	6.199e-57	2.5795e-57	1.0265e-57	3.9065e-58	1.4212e-58	4.9425e-59	1.6426e-59	5.2163e-60	1.5825e-60	4.5853e-61	1.2688e-61	3.3521e-62	8.4992e-63	2.9247e-63	1.6372e-62	2.6476e-61	4.1038e-60	5.9357e-59	8.0457e-58	1.0532e-56	1.5793e-55	4.2679e-54	2.1106e-52	1.1865e-50	6.2282e-49	2.9413e-47	1.2426e-45	4.6939e-44	1.5862e-42	4.7983e-41	1.3004e-39	3.1606e-38	6.8966e-37	1.3528e-35	2.3891e-34	3.8056e-33	5.4836e-32	7.1919e-31	8.7303e-30	1.0271e-28	1.2944e-27	1.956e-26	3.498e-25	6.5119e-24	1.1375e-22	1.7796e-21	2.4547e-20	2.9748e-19	3.171e-18	2.9812e-17	2.4806e-16	1.8339e-15	1.2094e-14	7.1443e-14	3.7964e-13	1.8226e-12	7.9393e-12	3.1521e-11	1.1457e-10	3.8297e-10	1.1826e-09	3.3893e-09	9.0553e-09	2.2657e-08	5.3332e-08	1.1863e-07	2.5051e-07	5.0451e-07	9.7361e-07	1.8089e-06	3.251e-06	5.6765e-06	9.667e-06	1.6106e-05	2.6309e-05	4.2187e-05	6.6433e-05	0.00010274	0.00015602	0.00023265	0.00034073	0.00049045	0.00069443	0.00096828	0.0013311	0.0018063	0.0024221	0.0032118	0.0042146	0.0054754	0.0070444	0.0089766	0.01133	0.014167	0.017547	0.02153	0.026171	0.031518	0.037611	0.044474	0.052118	0.06053	0.069678	0.079505	0.089924	0.10082	0.11206	0.12348	0.13489	0.14609	0.15686	0.16698	0.17625	0.18446	0.19141	0.19694	0.20093	0.20327	0.2039	0.20281	0.20002	0.1956	0.18964	0.1823	0.17374	0.16414	0.15373	0.14272	0.13133	0.11978	0.10826	0.096972	0.08607	0.075696	0.065959	0.056941	0.048697	0.041254	0.034616	0.028768	0.023675	0.019291	0.015561	0.012423	0.0098142	0.0076698	0.0059279	0.00453	0.003422	0.0025549	0.0018852	0.0013748	0.00099104	0.00070638	0.00049801	0.00034741	0.00023987	0.00016392	0.00011083	7.4069e-05	4.8851e-05	3.1721e-05	2.0219e-05	1.2605e-05	7.6546e-06	4.5082e-06	2.5633e-06	1.4007e-06	7.3232e-07	3.6473e-07	1.7234e-07	7.6963e-08	3.2367e-08	1.2777e-08	4.7212e-09	1.629e-09	5.2397e-10	1.5695e-10	4.3781e-11	1.1387e-11	2.7687e-12	6.3179e-13	1.3597e-13	2.7731e-14	5.3786e-15	9.9259e-16	1.7378e-16	2.869e-17	4.4308e-18	6.3471e-19	8.3673e-20	1.0082e-20	1.1044e-21	1.095e-22	9.8017e-24	7.9115e-25	5.765e-26	3.8092e-27	2.3023e-28	1.2903e-29	6.8202e-31	3.4521e-32	1.6834e-33	7.8545e-35	3.4501e-36	1.4003e-37	5.1683e-39	1.7148e-40	5.0747e-42	1.3325e-43	3.0934e-45	6.3316e-47	1.1402e-48	1.8031e-50	2.5017e-52	3.0512e-54	3.338e-56	3.6864e-58	6.1797e-60	2.0258e-61	8.5494e-63	3.5601e-64	1.384e-65	4.9807e-67	1.657e-68	5.0936e-70	1.4463e-71	3.7927e-73	9.183e-75	2.0527e-76	4.2356e-78	8.0677e-80	1.4186e-81	2.3027e-83	3.4512e-85	4.777e-87	6.1078e-89	7.2163e-91	7.8813e-93	7.9604e-95	7.4396e-97	6.4372e-99	5.16e-101
7.0439e-78	7.6376e-77	7.898e-76	7.7887e-75	7.3246e-74	6.5684e-73	5.617e-72	4.5805e-71	3.5621e-70	2.6418e-69	1.8686e-68	1.2607e-67	8.1137e-67	4.9817e-66	2.9184e-65	1.6314e-64	8.7039e-64	4.4326e-63	2.155e-62	1.0004e-61	4.4353e-61	1.8782e-60	7.5987e-60	2.9375e-59	1.0853e-58	3.8331e-58	1.2943e-57	4.1797e-57	1.291e-56	3.8147e-56	1.0786e-55	2.9187e-55	7.5606e-55	1.8751e-54	4.4534e-54	1.013e-53	2.2076e-53	4.6092e-53	9.2224e-53	1.7686e-52	3.2513e-52	5.7303e-52	9.6843e-52	1.5696e-51	2.4398e-51	3.638e-51	5.2039e-51	7.1418e-51	9.4044e-51	1.1883e-50	1.4409e-50	1.6767e-50	1.8725e-50	2.0071e-50	2.0647e-50	2.0385e-50	1.9317e-50	1.7569e-50	1.5335e-50	1.2845e-50	1.0326e-50	7.9654e-51	5.8957e-51	4.1869e-51	2.8525e-51	1.8642e-51	1.1686e-51	7.0254e-52	4.0501e-52	2.2386e-52	1.1862e-52	6.0247e-53	2.9325e-53	1.3677e-53	6.1114e-54	2.6156e-54	1.0721e-54	4.2077e-55	1.5809e-55	5.6852e-56	1.9565e-56	6.4416e-57	2.0288e-57	6.1108e-58	1.7599e-58	4.8459e-59	1.2804e-59	4.1337e-60	1.5995e-59	2.3343e-58	3.3346e-57	4.4515e-56	5.5606e-55	6.5744e-54	7.8739e-53	1.2712e-51	3.9631e-50	1.7948e-48	8.2452e-47	3.4685e-45	1.3115e-43	4.4455e-42	1.351e-40	3.6834e-39	9.0172e-38	1.9841e-36	3.9285e-35	7.0082e-34	1.128e-32	1.6409e-31	2.1619e-30	2.5884e-29	2.8368e-28	2.8989e-27	2.892e-26	3.0791e-25	3.8267e-24	5.4658e-23	8.0668e-22	1.1241e-20	1.4155e-19	1.5848e-18	1.5708e-17	1.3791e-16	1.0752e-15	7.4684e-15	4.6393e-14	2.5875e-13	1.301e-12	5.9227e-12	2.4516e-11	9.2679e-11	3.2139e-10	1.027e-09	3.0377e-09	8.3546e-09	2.1463e-08	5.1738e-08	1.1756e-07	2.5294e-07	5.1771e-07	1.0127e-06	1.9023e-06	3.4476e-06	6.0558e-06	1.0353e-05	1.7291e-05	2.8289e-05	4.5425e-05	7.1665e-05	0.00011113	0.0001694	0.00025381	0.00037386	0.00054158	0.00077212	0.0010843	0.0015015	0.0020523	0.0027717	0.0037014	0.0048909	0.0063976	0.0082864	0.01063	0.013506	0.016997	0.021188	0.026165	0.032009	0.038795	0.046589	0.055441	0.065382	0.07642	0.088535	0.10167	0.11575	0.13064	0.14617	0.16216	0.17837	0.19453	0.21038	0.2256	0.23991	0.253	0.26461	0.27446	0.28235	0.28807	0.29151	0.29256	0.29122	0.2875	0.28148	0.27331	0.26317	0.25128	0.23791	0.22334	0.20787	0.19181	0.17544	0.15907	0.14295	0.12732	0.11238	0.098287	0.085178	0.073137	0.062213	0.052424	0.043756	0.03617	0.029608	0.023997	0.019252	0.015287	0.01201	0.0093343	0.0071745	0.0054524	0.0040964	0.0030421	0.0022331	0.0016205	0.0011627	0.00082515	0.00057938	0.00040263	0.00027695	0.00018854	0.00012694	8.4428e-05	5.5364e-05	3.5702e-05	2.2567e-05	1.393e-05	8.3617e-06	4.8598e-06	2.7226e-06	1.4637e-06	7.5191e-07	3.6759e-07	1.7037e-07	7.4608e-08	3.0775e-08	1.1927e-08	4.334e-09	1.4749e-09	4.6988e-10	1.4022e-10	3.9269e-11	1.035e-11	2.5767e-12	6.0826e-13	1.3652e-13	2.9152e-14	5.9105e-15	1.1324e-15	2.0367e-16	3.4137e-17	5.2935e-18	7.5459e-19	9.8354e-20	1.1673e-20	1.2578e-21	1.229e-22	1.0897e-23	8.7993e-25	6.5183e-26	4.4803e-27	2.8984e-28	1.7884e-29	1.0592e-30	5.9976e-32	3.2049e-33	1.5899e-34	7.2129e-36	2.9577e-37	1.0873e-38	3.563e-40	1.0366e-41	2.6699e-43	6.0726e-45	1.2174e-46	2.1481e-48	3.3388e-50	4.6254e-52	6.1265e-54	1.0331e-55	3.2555e-57	1.5145e-58	7.3591e-60	3.3801e-61	1.4422e-62	5.6997e-64	2.085e-65	7.0571e-67	2.2093e-68	6.396e-70	1.7119e-71	4.2353e-73	9.6851e-75	2.0469e-76	3.9983e-78	7.2186e-80	1.2047e-81	1.8589e-83	2.6524e-85	3.5011e-87	4.2763e-89	4.8354e-91	5.0642e-93	4.9151e-95	4.4236e-97
2.8638e-74	2.9008e-73	2.8052e-72	2.5896e-71	2.282e-70	1.9197e-69	1.5416e-68	1.1818e-67	8.6487e-67	6.0431e-66	4.0317e-65	2.5685e-64	1.5627e-63	9.0806e-63	5.0406e-62	2.6731e-61	1.3546e-60	6.5598e-60	3.0365e-59	1.3437e-58	5.6859e-58	2.301e-57	8.9071e-57	3.2988e-56	1.1691e-55	3.9659e-55	1.2879e-54	4.0048e-54	1.1927e-53	3.4025e-53	9.3004e-53	2.4362e-52	6.117e-52	1.4725e-51	3.3988e-51	7.5244e-51	1.5979e-50	3.2556e-50	6.3653e-50	1.1944e-49	2.1515e-49	3.7206e-49	6.1779e-49	9.8512e-49	1.5087e-48	2.2195e-48	3.1367e-48	4.2589e-48	5.5561e-48	6.965e-48	8.3904e-48	9.7134e-48	1.0807e-47	1.1556e-47	1.1877e-47	1.1731e-47	1.1137e-47	1.0162e-47	8.9106e-48	7.5092e-48	6.0813e-48	4.7325e-48	3.5387e-48	2.5423e-48	1.7546e-48	1.1633e-48	7.4078e-49	4.5303e-49	2.6604e-49	1.5e-49	8.1187e-50	4.2177e-50	2.1027e-50	1.0058e-50	4.6157e-51	2.0316e-51	8.5753e-52	3.4704e-52	1.3463e-52	5.0055e-53	1.7833e-53	6.0864e-54	1.9897e-54	6.2286e-55	1.8668e-55	5.3559e-56	1.4751e-56	4.618e-57	1.238e-56	1.6123e-55	2.1231e-54	2.6175e-53	3.021e-52	3.2793e-51	3.4377e-50	3.9776e-49	7.3039e-48	2.3704e-46	9.2179e-45	3.4336e-43	1.1618e-41	3.537e-40	9.6773e-39	2.3806e-37	5.27e-36	1.0509e-34	1.89e-33	3.0693e-32	4.5074e-31	5.995e-30	7.235e-29	7.9418e-28	7.9612e-27	7.3497e-26	6.3746e-25	5.4336e-24	4.9201e-23	5.0712e-22	5.8479e-21	6.9129e-20	7.7558e-19	7.9301e-18	7.27e-17	5.9464e-16	4.3397e-15	2.8319e-14	1.6576e-13	8.7348e-13	4.1598e-12	1.7977e-11	7.0797e-11	2.5518e-10	8.4551e-10	2.5868e-09	7.3405e-09	1.9408e-08	4.8027e-08	1.1175e-07	2.4558e-07	5.1211e-07	1.0181e-06	1.9384e-06	3.5517e-06	6.2916e-06	1.0823e-05	1.8153e-05	2.9786e-05	4.7934e-05	7.5785e-05	0.00011782	0.00018019	0.00027112	0.00040138	0.00058481	0.00083902	0.0011861	0.0016536	0.0022757	0.0030942	0.0041598	0.0055328	0.007284	0.0094947	0.012256	0.015669	0.019841	0.024885	0.030916	0.038049	0.046392	0.056044	0.067089	0.07959	0.093582	0.10907	0.12601	0.14433	0.16389	0.18453	0.206	0.22804	0.25034	0.27253	0.29424	0.31509	0.33467	0.35258	0.36847	0.38199	0.39285	0.40081	0.40567	0.40733	0.40575	0.40095	0.39304	0.38218	0.36863	0.35266	0.33461	0.31487	0.29382	0.27187	0.24943	0.22687	0.20457	0.18285	0.16199	0.14223	0.12375	0.1067	0.091147	0.077141	0.064676	0.05371	0.044175	0.035978	0.02901	0.023155	0.018291	0.014295	0.011051	0.0084493	0.0063875	0.0047739	0.0035272	0.0025765	0.0018609	0.0013293	0.00093943	0.00065702	0.00045484	0.00031167	0.00021131	0.00014162	9.3689e-05	6.1044e-05	3.9063e-05	2.4467e-05	1.4942e-05	8.8598e-06	5.079e-06	2.8028e-06	1.4826e-06	7.4876e-07	3.5972e-07	1.6385e-07	7.0566e-08	2.8668e-08	1.0969e-08	3.9494e-09	1.3383e-09	4.2726e-10	1.2876e-10	3.673e-11	9.9449e-12	2.5613e-12	6.279e-13	1.4631e-13	3.2283e-14	6.7098e-15	1.3053e-15	2.3613e-16	3.9486e-17	6.0721e-18	8.5518e-19	1.0998e-19	1.2897e-20	1.3795e-21	1.3498e-22	1.2154e-23	1.0167e-24	7.9945e-26	5.9772e-27	4.2763e-28	2.9216e-29	1.8871e-30	1.1363e-31	6.2906e-33	3.1649e-34	1.435e-35	5.8276e-37	2.1106e-38	6.7949e-40	1.9395e-41	4.8977e-43	1.0925e-44	2.1524e-46	3.7719e-48	6.1361e-50	1.1191e-51	3.377e-53	1.6653e-54	9.3027e-56	5.0183e-57	2.5284e-58	1.1828e-59	5.1313e-61	2.0633e-62	7.6867e-64	2.6524e-65	8.4747e-67	2.5067e-68	6.8626e-70	1.7387e-71	4.0766e-73	8.8447e-75	1.7758e-76	3.2997e-78	5.6751e-80	9.0367e-82	1.3325e-83	1.8202e-85	2.3043e-87	2.7046e-89	2.9447e-91	2.9758e-93
8.8813e-71	8.4061e-70	7.6033e-69	6.5719e-68	5.4281e-67	4.2843e-66	3.2315e-65	2.3294e-64	1.6047e-63	1.0567e-62	6.6508e-62	4.0018e-61	2.3023e-60	1.2665e-59	6.6632e-59	3.3531e-58	1.6143e-57	7.4359e-57	3.278e-56	1.3832e-55	5.5875e-55	2.1614e-54	8.0074e-54	2.8418e-53	9.6636e-53	3.1493e-52	9.8378e-52	2.9465e-51	8.4628e-51	2.3314e-50	6.1622e-50	1.5629e-49	3.8045e-49	8.8905e-49	1.9949e-48	4.2987e-48	8.8977e-48	1.7694e-47	3.3809e-47	6.2088e-47	1.096e-46	1.8598e-46	3.0346e-46	4.7615e-46	7.1855e-46	1.043e-45	1.4564e-45	1.9566e-45	2.529e-45	3.1454e-45	3.7646e-45	4.336e-45	4.8064e-45	5.1275e-45	5.2646e-45	5.2024e-45	4.9478e-45	4.5289e-45	3.9896e-45	3.3823e-45	2.7593e-45	2.1662e-45	1.6362e-45	1.1891e-45	8.3131e-46	5.5905e-46	3.616e-46	2.2493e-46	1.3453e-46	7.7363e-47	4.2764e-47	2.272e-47	1.16e-47	5.6899e-48	2.6811e-48	1.2134e-48	5.273e-49	2.2e-49	8.8103e-50	3.386e-50	1.2485e-50	4.4163e-51	1.4982e-51	4.8731e-52	1.5196e-52	4.5416e-53	1.3038e-53	4.0512e-54	7.6532e-54	8.7564e-53	1.0627e-51	1.2108e-50	1.2927e-49	1.2963e-48	1.2341e-47	1.1794e-46	1.4078e-45	2.8983e-44	8.8637e-43	2.8716e-41	8.6702e-40	2.3717e-38	5.8484e-37	1.2997e-35	2.6049e-34	4.7134e-33	7.7084e-32	1.1409e-30	1.5304e-29	1.8633e-28	2.0627e-27	2.0805e-26	1.9172e-25	1.6218e-24	1.2716e-23	9.4387e-23	6.9261e-22	5.369e-21	4.6287e-20	4.3574e-19	4.1707e-18	3.8041e-17	3.1874e-16	2.4146e-15	1.6449e-14	1.0072e-13	5.5533e-13	2.7654e-12	1.2481e-11	5.1249e-11	1.9223e-10	6.6146e-10	2.0969e-09	6.1514e-09	1.6773e-08	4.2703e-08	1.0197e-07	2.2942e-07	4.8858e-07	9.8941e-07	1.9142e-06	3.5547e-06	6.3657e-06	1.1044e-05	1.8639e-05	3.0722e-05	4.9605e-05	7.8637e-05	0.00012258	0.00018804	0.00028398	0.00042228	0.00061844	0.00089232	0.0012691	0.0017805	0.002466	0.0033744	0.004565	0.0061096	0.0080926	0.010612	0.013781	0.017721	0.022571	0.028472	0.035576	0.044033	0.053992	0.065593	0.078961	0.094198	0.11138	0.13054	0.15167	0.1747	0.19952	0.22594	0.25372	0.28254	0.31205	0.34181	0.37138	0.40026	0.42794	0.45392	0.47769	0.49878	0.51677	0.53126	0.54196	0.54863	0.55111	0.54934	0.54335	0.53326	0.51929	0.50172	0.48092	0.45731	0.43137	0.40359	0.37451	0.34465	0.31451	0.28458	0.25528	0.22702	0.20012	0.17484	0.15138	0.12989	0.11043	0.093009	0.077607	0.06414	0.0525	0.042551	0.034143	0.027118	0.021314	0.016575	0.012749	0.0096983	0.0072949	0.0054251	0.0039891	0.0029004	0.0020856	0.0014836	0.0010443	0.00072761	0.00050182	0.00034252	0.00023124	0.00015422	0.00010143	6.563e-05	4.1651e-05	2.5835e-05	1.5602e-05	9.1361e-06	5.1659e-06	2.809e-06	1.4633e-06	7.277e-07	3.4438e-07	1.547e-07	6.5831e-08	2.6504e-08	1.0091e-08	3.6344e-09	1.2398e-09	4.0128e-10	1.2348e-10	3.618e-11	1.01e-11	2.6837e-12	6.7679e-13	1.6128e-13	3.6123e-14	7.5607e-15	1.4707e-15	2.6457e-16	4.3838e-17	6.6707e-18	9.3064e-19	1.1904e-19	1.3992e-20	1.5186e-21	1.5335e-22	1.455e-23	1.3097e-24	1.1252e-25	9.2202e-27	7.1526e-28	5.1914e-29	3.4812e-30	2.133e-31	1.184e-32	5.9159e-34	2.6483e-35	1.0584e-36	3.7655e-38	1.1899e-39	3.3339e-41	8.2763e-43	1.8282e-44	3.6909e-46	7.6933e-48	2.2944e-49	1.1568e-50	7.2766e-52	4.5737e-53	2.7084e-54	1.4939e-55	7.6572e-57	3.6447e-58	1.6102e-59	6.5999e-61	2.5091e-62	8.8445e-64	2.89e-65	8.7522e-67	2.4561e-68	6.3864e-70	1.5386e-71	3.4344e-73	7.1036e-75	1.3616e-76	2.419e-78	3.9843e-80	6.0861e-82	8.6248e-84	1.1344e-85	1.3855e-87	1.5722e-89
2.1061e-67	1.8631e-66	1.5767e-65	1.2763e-64	9.8838e-64	7.3217e-63	5.1887e-62	3.5179e-61	2.282e-60	1.4165e-59	8.4137e-59	4.7832e-58	2.6028e-57	1.3559e-56	6.7635e-56	3.2307e-55	1.4781e-54	6.4784e-54	2.7206e-53	1.0949e-52	4.224e-52	1.5623e-51	5.5411e-51	1.885e-50	6.1521e-50	1.9266e-49	5.7911e-49	1.671e-48	4.6301e-48	1.2321e-47	3.1497e-47	7.7365e-47	1.8263e-46	4.144e-46	9.0408e-46	1.8967e-45	3.8274e-45	7.4299e-45	1.3878e-44	2.4945e-44	4.3159e-44	7.1882e-44	1.1527e-43	1.78e-43	2.6471e-43	3.7917e-43	5.2318e-43	6.9547e-43	8.9073e-43	1.0992e-42	1.3072e-42	1.498e-42	1.6544e-42	1.7608e-42	1.8062e-42	1.7856e-42	1.7013e-42	1.5622e-42	1.3824e-42	1.1789e-42	9.6884e-43	7.6719e-43	5.8533e-43	4.3025e-43	3.0466e-43	2.078e-43	1.365e-43	8.6351e-44	5.2597e-44	3.0842e-44	1.7409e-44	9.4571e-45	4.9435e-45	2.4861e-45	1.2026e-45	5.595e-46	2.5028e-46	1.0762e-46	4.4482e-47	1.7666e-47	6.7407e-48	2.4704e-48	8.6942e-49	2.9376e-49	9.5276e-50	2.9655e-50	8.873e-51	2.7799e-51	3.8121e-51	3.7535e-50	4.1974e-49	4.4218e-48	4.3712e-47	4.0599e-46	3.5596e-45	3.0156e-44	2.7389e-43	3.5377e-42	7.6131e-41	2.0539e-39	5.4792e-38	1.3451e-36	2.992e-35	6.0142e-34	1.0928e-32	1.7965e-31	2.6752e-30	3.6133e-29	4.4327e-28	4.9468e-27	5.0301e-26	4.6693e-25	3.9659e-24	3.0921e-23	2.2252e-22	1.4942e-21	9.5714e-21	6.0907e-20	4.0684e-19	2.9589e-18	2.2997e-17	1.8026e-16	1.3505e-15	9.3627e-15	5.9161e-14	3.3881e-13	1.7571e-12	8.2649e-12	3.5355e-11	1.3801e-10	4.9348e-10	1.6227e-09	4.928e-09	1.3881e-08	3.6424e-08	8.9436e-08	2.0643e-07	4.4989e-07	9.3013e-07	1.8326e-06	3.457e-06	6.2729e-06	1.0999e-05	1.872e-05	3.1049e-05	5.0364e-05	8.0124e-05	0.00012527	0.00019274	0.00029205	0.00043598	0.00064137	0.00093009	0.0013301	0.0018769	0.0026148	0.0035992	0.0048981	0.0065938	0.0087846	0.011586	0.01513	0.019565	0.025057	0.031783	0.03993	0.049691	0.061258	0.074818	0.090546	0.10859	0.12908	0.15209	0.17764	0.20571	0.2362	0.26893	0.30364	0.34002	0.37764	0.41603	0.45466	0.49294	0.53026	0.56598	0.59946	0.63009	0.65728	0.6805	0.69928	0.71324	0.72208	0.7256	0.72374	0.7165	0.70403	0.68657	0.66447	0.63817	0.60819	0.57509	0.53951	0.5021	0.46351	0.42438	0.38535	0.34696	0.30975	0.27415	0.24052	0.20916	0.18027	0.15396	0.13029	0.10924	0.090734	0.074646	0.060818	0.049064	0.039186	0.030976	0.024231	0.018752	0.014354	0.010867	0.0081349	0.0060217	0.0044077	0.0031909	0.0022851	0.0016192	0.0011356	0.00078834	0.00054172	0.00036832	0.00024755	0.00016425	0.00010736	6.8959e-05	4.3386e-05	2.6643e-05	1.591e-05	9.202e-06	5.1352e-06	2.7549e-06	1.416e-06	6.9527e-07	3.2536e-07	1.4486e-07	6.1296e-08	2.4644e-08	9.4182e-09	3.4248e-09	1.1865e-09	3.9205e-10	1.236e-10	3.7154e-11	1.0625e-11	2.8801e-12	7.3676e-13	1.7696e-13	3.9707e-14	8.2848e-15	1.6011e-15	2.8576e-16	4.7016e-17	7.1289e-18	9.9775e-19	1.2939e-19	1.5643e-20	1.7772e-21	1.9128e-22	1.961e-23	1.9155e-24	1.773e-25	1.5403e-26	1.2419e-27	9.197e-29	6.2027e-30	3.7846e-31	2.0788e-32	1.0239e-33	4.5089e-35	1.7707e-36	6.1896e-38	1.9237e-39	5.3292e-41	1.339e-42	3.3033e-44	1.0237e-45	5.1716e-47	3.5705e-48	2.587e-49	1.7905e-50	1.1594e-51	6.9937e-53	3.9253e-54	2.0487e-55	9.9389e-57	4.4798e-58	1.8754e-59	7.2899e-61	2.6303e-62	8.8073e-64	2.7364e-65	7.8877e-67	2.1093e-68	5.2328e-70	1.2044e-71	2.5718e-73	5.0965e-75	9.3743e-77	1.6009e-78	2.5391e-80	3.7418e-82	5.1258e-84	6.5307e-86
3.8288e-64	3.1669e-63	2.5083e-62	1.9024e-61	1.3816e-60	9.6094e-60	6.4006e-59	4.0832e-58	2.495e-57	1.4604e-56	8.1895e-56	4.4003e-55	2.2657e-54	1.1182e-53	5.2898e-53	2.3993e-52	1.0436e-51	4.3537e-51	1.7424e-50	6.6907e-50	2.4658e-49	8.7231e-49	2.9629e-48	9.665e-48	3.0284e-47	9.1169e-47	2.6376e-46	7.335e-46	1.9612e-45	5.0426e-45	1.2471e-44	2.9675e-44	6.7949e-44	1.4975e-43	3.1774e-43	6.4916e-43	1.2773e-42	2.4211e-42	4.4214e-42	7.7807e-42	1.3197e-41	2.1576e-41	3.401e-41	5.1691e-41	7.5766e-41	1.0711e-40	1.4606e-40	1.9214e-40	2.4386e-40	2.9862e-40	3.5286e-40	4.0234e-40	4.4272e-40	4.7012e-40	4.8178e-40	4.765e-40	4.5481e-40	4.1894e-40	3.7241e-40	3.1945e-40	2.6443e-40	2.1119e-40	1.6274e-40	1.2098e-40	8.6754e-41	6.0005e-41	4.0027e-41	2.5747e-41	1.5968e-41	9.5465e-42	5.5012e-42	3.055e-42	1.6347e-42	8.4266e-43	4.1838e-43	2.0003e-43	9.2081e-44	4.0802e-44	1.7399e-44	7.1392e-45	2.8178e-45	1.0697e-45	3.9042e-46	1.3699e-46	4.6197e-47	1.497e-47	4.6673e-48	1.49e-48	1.543e-48	1.2755e-47	1.313e-46	1.2798e-45	1.1723e-44	1.0099e-43	8.2024e-43	6.3443e-42	4.8925e-41	4.4358e-40	6.2098e-39	1.2877e-37	2.9588e-36	6.4835e-35	1.3005e-33	2.3671e-32	3.9045e-31	5.8402e-30	7.9302e-29	9.7881e-28	1.0997e-26	1.1264e-25	1.0535e-24	9.0141e-24	7.0698e-23	5.096e-22	3.3885e-21	2.0918e-20	1.2132e-19	6.7619e-19	3.7579e-18	2.1769e-17	1.3471e-16	8.7419e-16	5.6777e-15	3.532e-14	2.0467e-13	1.0893e-12	5.2955e-12	2.3487e-11	9.5167e-11	3.5317e-10	1.2043e-09	3.7876e-09	1.103e-08	2.9868e-08	7.5526e-08	1.7913e-07	4.0026e-07	8.4644e-07	1.7018e-06	3.2679e-06	6.0211e-06	1.0694e-05	1.8389e-05	3.0748e-05	5.0183e-05	8.0205e-05	0.00012585	0.00019425	0.00029525	0.00044227	0.00065317	0.00095137	0.0013671	0.0019391	0.0027161	0.0037592	0.0051442	0.0069633	0.0093277	0.012369	0.016239	0.021113	0.027183	0.034662	0.043775	0.054759	0.067856	0.083303	0.10133	0.12214	0.14592	0.17279	0.20285	0.23609	0.27245	0.31178	0.35384	0.39828	0.44467	0.49249	0.54114	0.58994	0.63818	0.68511	0.72994	0.77192	0.8103	0.84438	0.87352	0.89716	0.91485	0.92622	0.93104	0.9292	0.92072	0.90574	0.88454	0.85753	0.82521	0.78819	0.74714	0.70282	0.65601	0.60751	0.55812	0.50859	0.45966	0.41198	0.36613	0.3226	0.28178	0.24395	0.20933	0.178	0.14998	0.1252	0.10353	0.084799	0.068785	0.055244	0.043923	0.034563	0.026913	0.020732	0.015797	0.011905	0.0088718	0.0065385	0.004766	0.0034365	0.0024517	0.0017311	0.00121	0.00083715	0.00057323	0.00038822	0.00025975	0.00017142	0.00011133	7.0967e-05	4.4258e-05	2.691e-05	1.5895e-05	9.0883e-06	5.0126e-06	2.6585e-06	1.3522e-06	6.5818e-07	3.0608e-07	1.3588e-07	5.7568e-08	2.3283e-08	8.9953e-09	3.3217e-09	1.1727e-09	3.9551e-10	1.2723e-10	3.892e-11	1.1279e-11	3.0833e-12	7.9135e-13	1.8988e-13	4.2432e-14	8.8053e-15	1.6935e-15	3.0168e-16	4.9829e-17	7.6534e-18	1.0984e-18	1.4825e-19	1.8941e-20	2.3018e-21	2.6631e-22	2.9219e-23	3.0167e-24	2.9029e-25	2.5784e-26	2.0966e-27	1.5502e-28	1.0369e-29	6.2477e-31	3.3805e-32	1.6381e-33	7.0936e-35	2.7415e-36	9.4688e-38	2.9568e-39	8.7997e-41	2.9785e-42	1.5126e-43	1.1162e-44	9.1915e-46	7.3849e-47	5.587e-48	3.9492e-49	2.603e-50	1.5986e-51	9.1433e-53	4.8677e-54	2.4112e-55	1.1109e-56	4.7589e-58	1.8949e-59	7.0117e-61	2.4107e-62	7.6994e-64	2.2843e-65	6.2952e-67	1.6115e-68	3.8324e-70	8.4678e-72	1.7387e-73	3.3183e-75	5.8887e-77	9.7202e-79	1.4931e-80	2.1353e-82
5.3516e-61	4.1403e-60	3.0704e-59	2.1826e-58	1.4874e-57	9.7166e-57	6.0855e-56	3.6544e-55	2.1042e-54	1.162e-53	6.1542e-53	3.1267e-52	1.524e-51	7.128e-51	3.1996e-50	1.3786e-49	5.703e-49	2.2655e-48	8.6438e-48	3.1683e-47	1.1159e-46	3.7774e-46	1.2292e-45	3.8462e-45	1.1575e-44	3.3509e-44	9.3342e-44	2.5025e-43	6.4589e-43	1.6052e-42	3.842e-42	8.8587e-42	1.9682e-41	4.2143e-41	8.6985e-41	1.7311e-40	3.3223e-40	6.1502e-40	1.0984e-39	1.8927e-39	3.1477e-39	5.0528e-39	7.8302e-39	1.1716e-38	1.6928e-38	2.3622e-38	3.1838e-38	4.1452e-38	5.2139e-38	6.3361e-38	7.4398e-38	8.4412e-38	9.2547e-38	9.8053e-38	1.0039e-37	9.9332e-38	9.4978e-38	8.776e-38	7.836e-38	6.7609e-38	5.6364e-38	4.54e-38	3.5329e-38	2.6558e-38	1.9285e-38	1.3525e-38	9.1596e-39	5.9898e-39	3.7816e-39	2.3046e-39	1.3556e-39	7.694e-40	4.2133e-40	2.2256e-40	1.1338e-40	5.5699e-41	2.6377e-41	1.204e-41	5.2958e-42	2.2442e-42	9.1599e-43	3.6004e-43	1.3624e-43	4.9626e-44	1.7394e-44	5.8659e-45	1.9052e-45	6.2405e-46	5.1094e-46	3.4522e-45	3.2661e-44	2.9472e-43	2.5035e-42	2.0026e-41	1.5107e-40	1.0799e-39	7.4647e-39	5.4089e-38	5.0886e-37	7.3951e-36	1.3886e-34	2.6749e-33	4.8247e-32	7.9542e-31	1.1926e-29	1.6254e-28	2.0155e-27	2.2767e-26	2.3462e-25	2.2089e-24	1.9031e-23	1.5031e-22	1.0904e-21	7.2819e-21	4.4899e-20	2.5671e-19	1.3709e-18	6.9268e-18	3.3859e-17	1.6545e-16	8.365e-16	4.442e-15	2.434e-14	1.3256e-13	6.925e-13	3.3895e-12	1.535e-11	6.3977e-11	2.451e-10	8.6407e-10	2.8099e-09	8.4555e-09	2.3631e-08	6.1576e-08	1.5022e-07	3.446e-07	7.4654e-07	1.5342e-06	3.0042e-06	5.6312e-06	1.015e-05	1.7669e-05	2.9838e-05	4.9076e-05	7.8897e-05	0.00012436	0.00019262	0.0002937	0.00044132	0.00065397	0.00095613	0.0013797	0.0019659	0.002767	0.0038489	0.0052938	0.0072028	0.0096984	0.012927	0.017059	0.022293	0.028849	0.036974	0.046932	0.059005	0.073484	0.090661	0.11082	0.13424	0.16116	0.19177	0.2262	0.26454	0.30676	0.35275	0.40228	0.45502	0.51052	0.56823	0.62751	0.68761	0.74771	0.80696	0.86446	0.91929	0.97056	1.0174	1.059	1.0946	1.1236	1.1454	1.1596	1.1659	1.1642	1.1546	1.1371	1.112	1.0799	1.0412	0.99674	0.94719	0.89345	0.83642	0.77707	0.71633	0.65514	0.59437	0.53485	0.47731	0.42237	0.37057	0.32231	0.27788	0.23744	0.20105	0.16869	0.14023	0.11547	0.094179	0.076066	0.06083	0.048154	0.037727	0.029247	0.022431	0.017017	0.012769	0.0094761	0.0069558	0.0050508	0.0036288	0.0025802	0.001816	0.0012654	0.00087273	0.00059556	0.00040178	0.00026759	0.00017563	0.00011332	7.1688e-05	4.4324e-05	2.6697e-05	1.5613e-05	8.8381e-06	4.8282e-06	2.5391e-06	1.2829e-06	6.2187e-07	2.8894e-07	1.2864e-07	5.4882e-08	2.244e-08	8.7925e-09	3.2995e-09	1.1841e-09	4.0547e-10	1.3204e-10	4.0738e-11	1.1859e-11	3.2443e-12	8.3109e-13	1.9877e-13	4.4291e-14	9.1873e-15	1.7749e-15	3.2003e-16	5.4056e-17	8.5964e-18	1.294e-18	1.8511e-19	2.5197e-20	3.255e-21	3.9661e-22	4.5208e-23	4.7793e-24	4.6488e-25	4.1328e-26	3.34e-27	2.4432e-28	1.6121e-29	9.568e-31	5.0958e-32	2.4317e-33	1.0403e-34	4.0216e-36	1.4566e-37	5.5986e-39	2.9252e-40	2.2599e-41	2.0791e-42	1.9226e-43	1.6902e-44	1.3936e-45	1.0741e-46	7.7297e-48	5.1907e-49	3.2509e-50	1.8979e-51	1.0325e-52	5.2314e-54	2.468e-55	1.0838e-56	4.429e-58	1.6839e-59	5.9555e-61	1.9592e-62	5.9944e-64	1.7059e-65	4.5154e-67	1.1118e-68	2.5472e-70	5.4307e-72	1.0778e-73	1.992e-75	3.4298e-77	5.5041e-79
5.7685e-58	4.1763e-57	2.9012e-56	1.934e-55	1.2372e-54	7.5949e-54	4.4749e-53	2.5307e-52	1.3739e-51	7.1607e-51	3.5837e-50	1.7224e-49	7.951e-49	3.5261e-48	1.5025e-47	6.1527e-47	2.4218e-46	9.1651e-46	3.3353e-45	1.1674e-44	3.9313e-44	1.2739e-43	3.9732e-43	1.193e-42	3.4497e-42	9.6075e-42	2.5779e-41	6.6657e-41	1.6613e-40	3.9919e-40	9.2502e-40	2.0675e-39	4.4585e-39	9.2778e-39	1.8635e-38	3.6136e-38	6.7662e-38	1.2236e-37	2.1376e-37	3.6078e-37	5.8845e-37	9.2763e-37	1.4136e-36	2.0825e-36	2.9666e-36	4.0868e-36	5.4451e-36	7.0174e-36	8.7484e-36	1.0551e-35	1.2312e-35	1.3901e-35	1.5187e-35	1.6054e-35	1.6422e-35	1.6255e-35	1.557e-35	1.4431e-35	1.2942e-35	1.123e-35	9.4288e-36	7.6586e-36	6.0179e-36	4.5741e-36	3.3627e-36	2.3907e-36	1.6436e-36	1.0925e-36	7.0201e-37	4.3601e-37	2.617e-37	1.5178e-37	8.5037e-38	4.6019e-38	2.4049e-38	1.2134e-38	5.9101e-39	2.778e-39	1.2599e-39	5.5122e-40	2.3258e-40	9.4623e-41	3.7109e-41	1.4026e-41	5.1079e-42	1.7919e-42	6.0608e-43	2.0462e-43	1.3897e-43	7.4827e-43	6.4872e-42	5.4228e-41	4.2751e-40	3.1783e-39	2.2305e-38	1.4815e-37	9.4004e-37	5.9164e-36	4.177e-35	4.1151e-34	5.8418e-33	9.5661e-32	1.5371e-30	2.292e-29	3.1258e-28	3.8872e-27	4.4087e-26	4.5651e-25	4.3215e-24	3.7457e-23	2.9773e-22	2.1741e-21	1.4612e-20	9.0571e-20	5.1909e-19	2.7601e-18	1.3682e-17	6.3751e-17	2.83e-16	1.2227e-15	5.2872e-15	2.3478e-14	1.079e-13	5.0478e-13	2.333e-12	1.0355e-11	4.3283e-11	1.6855e-10	6.0849e-10	2.0342e-09	6.3034e-09	1.8147e-08	4.8689e-08	1.2217e-07	2.8784e-07	6.3935e-07	1.3445e-06	2.6886e-06	5.1348e-06	9.4078e-06	1.6608e-05	2.8374e-05	4.7105e-05	7.6278e-05	0.00012089	0.00018804	0.00028769	0.00043359	0.00064444	0.00094523	0.0013689	0.0019581	0.0027676	0.0038671	0.0053436	0.0073053	0.0098841	0.013239	0.017557	0.023056	0.029985	0.03862	0.049264	0.062241	0.077893	0.096569	0.11862	0.14437	0.17414	0.20819	0.24673	0.28989	0.33772	0.39015	0.44699	0.50794	0.57256	0.64028	0.71041	0.78217	0.85466	0.92692	0.99795	1.0667	1.1321	1.1932	1.2489	1.2984	1.3408	1.3754	1.4016	1.4188	1.4269	1.4256	1.4149	1.395	1.3661	1.3289	1.2838	1.2317	1.1734	1.1098	1.0421	0.97127	0.89844	0.82469	0.75108	0.67859	0.60813	0.54049	0.47635	0.41624	0.36057	0.30961	0.26348	0.2222	0.18568	0.15372	0.12607	0.1024	0.082363	0.06559	0.051704	0.040338	0.03114	0.023783	0.017968	0.013428	0.009927	0.0072601	0.0052537	0.0037625	0.0026674	0.0018721	0.0013008	0.00089455	0.00060845	0.00040889	0.00027108	0.00017694	0.00011343	7.1234e-05	4.3689e-05	2.6093e-05	1.5132e-05	8.4979e-06	4.611e-06	2.4129e-06	1.2161e-06	5.8971e-07	2.7503e-07	1.2332e-07	5.3143e-08	2.1995e-08	8.7324e-09	3.319e-09	1.2044e-09	4.1586e-10	1.3614e-10	4.2099e-11	1.2255e-11	3.3481e-12	8.5674e-13	2.0508e-13	4.5924e-14	9.6339e-15	1.8985e-15	3.5277e-16	6.2075e-17	1.0378e-17	1.6508e-18	2.4936e-19	3.5602e-20	4.7716e-21	5.9573e-22	6.8772e-23	7.2928e-24	7.0653e-25	6.2254e-26	4.9708e-27	3.5859e-28	2.3313e-29	1.3636e-30	7.1751e-32	3.4159e-33	1.5094e-34	6.76e-36	3.755e-37	3.0104e-38	3.0382e-39	3.1998e-40	3.2483e-41	3.1087e-42	2.7889e-43	2.3414e-44	1.8382e-45	1.3486e-46	9.241e-48	5.9116e-49	3.5289e-50	1.9649e-51	1.0201e-52	4.9367e-54	2.2263e-55	9.3537e-57	3.6607e-58	1.3344e-59	4.5298e-61	1.4321e-62	4.2167e-64	1.1564e-65	2.9543e-67	7.0322e-69	1.5601e-70	3.2267e-72	6.2243e-74	1.1203e-75
4.8109e-55	3.2611e-54	2.1233e-53	1.328e-52	7.979e-52	4.6056e-51	2.5541e-50	1.3611e-49	6.9703e-49	3.4308e-48	1.6233e-47	7.3845e-47	3.2302e-46	1.359e-45	5.4999e-45	2.1416e-44	8.0252e-44	2.8947e-43	1.0052e-42	3.3617e-42	1.0829e-41	3.3606e-41	1.0051e-40	2.8974e-40	8.0532e-40	2.1586e-39	5.5815e-39	1.3925e-38	3.3527e-38	7.7925e-38	1.7488e-37	3.7904e-37	7.9363e-37	1.6056e-36	3.1392e-36	5.9331e-36	1.0842e-35	1.916e-35	3.2749e-35	5.4154e-35	8.6648e-35	1.3417e-34	2.0108e-34	2.9175e-34	4.0982e-34	5.5745e-34	7.3432e-34	9.3686e-34	1.1578e-33	1.386e-33	1.6074e-33	1.806e-33	1.9661e-33	2.0738e-33	2.1194e-33	2.0987e-33	2.0137e-33	1.872e-33	1.6862e-33	1.4715e-33	1.2441e-33	1.0189e-33	8.0835e-34	6.2114e-34	4.6224e-34	3.331e-34	2.3242e-34	1.57e-34	1.0265e-34	6.4962e-35	3.9779e-35	2.3567e-35	1.3506e-35	7.4853e-36	4.0115e-36	2.0783e-36	1.0407e-36	5.0356e-37	2.354e-37	1.0629e-37	4.6342e-38	1.9507e-38	7.9253e-39	3.107e-39	1.1751e-39	4.2865e-40	1.5092e-40	5.267e-41	3.1073e-41	1.3066e-40	1.0333e-39	8.0064e-39	5.863e-38	4.0549e-37	2.6506e-36	1.6402e-35	9.6542e-35	5.5014e-34	3.2298e-33	2.2891e-32	2.3069e-31	3.0322e-30	4.2476e-29	5.6958e-28	7.0617e-27	8.0208e-26	8.3326e-25	7.9218e-24	6.9003e-23	5.5151e-22	4.051e-21	2.7393e-20	1.7084e-19	9.8461e-19	5.2561e-18	2.6061e-17	1.2048e-16	5.2225e-16	2.1414e-15	8.4212e-15	3.2393e-14	1.2473e-13	4.8955e-13	1.9636e-12	7.9297e-12	3.1477e-11	1.2011e-10	4.3363e-10	1.4678e-09	4.639e-09	1.3675e-08	3.7636e-08	9.6928e-08	2.343e-07	5.3342e-07	1.1482e-06	2.3463e-06	4.5702e-06	8.5222e-06	1.5279e-05	2.6446e-05	4.438e-05	7.2487e-05	0.00011565	0.0001808	0.00027767	0.00041978	0.00062564	0.00092019	0.0013365	0.0019181	0.0027209	0.0038167	0.0052961	0.0072719	0.0098832	0.013299	0.017719	0.02338	0.030551	0.039539	0.050679	0.064339	0.080907	0.10079	0.12438	0.1521	0.18433	0.22139	0.26358	0.3111	0.36407	0.42249	0.48622	0.55499	0.62838	0.70584	0.78667	0.87002	0.95497	1.0405	1.1254	1.2086	1.289	1.3652	1.4363	1.5011	1.5586	1.6078	1.6481	1.6787	1.6992	1.7091	1.7083	1.6968	1.6746	1.6422	1.6001	1.5488	1.4892	1.4222	1.3489	1.2704	1.1878	1.1026	1.0158	0.92868	0.84246	0.75817	0.67681	0.59919	0.52603	0.45787	0.39509	0.33792	0.28645	0.24063	0.20028	0.16515	0.1349	0.10913	0.087428	0.069341	0.05444	0.0423	0.032523	0.024741	0.01862	0.013864	0.010213	0.0074448	0.0053712	0.0038361	0.0027126	0.0018992	0.0013164	0.00090277	0.0006121	0.00040979	0.00027044	0.00017558	0.00011187	6.9777e-05	4.2492e-05	2.52e-05	1.4519e-05	8.1103e-06	4.3846e-06	2.2912e-06	1.1561e-06	5.6285e-07	2.6425e-07	1.1954e-07	5.204e-08	2.1765e-08	8.7254e-09	3.3429e-09	1.2201e-09	4.2274e-10	1.386e-10	4.2874e-11	1.2485e-11	3.4178e-12	8.7915e-13	2.1265e-13	4.846e-14	1.0433e-14	2.1291e-15	4.1292e-16	7.6202e-17	1.3366e-17	2.2202e-18	3.4729e-19	5.0812e-20	6.9065e-21	8.6662e-22	9.9842e-23	1.0513e-23	1.0078e-24	8.7678e-26	6.9049e-27	4.9129e-28	3.1569e-29	1.8394e-30	9.9005e-32	5.245e-33	3.1988e-34	2.6739e-35	2.9124e-36	3.4512e-37	4.0159e-38	4.4367e-39	4.6108e-40	4.4954e-41	4.1073e-42	3.5143e-43	2.8142e-44	2.108e-45	1.4763e-46	9.6619e-48	5.9067e-49	3.3718e-50	1.7967e-51	8.9342e-53	4.1447e-54	1.7935e-55	7.2383e-57	2.7242e-58	9.5609e-60	3.1292e-61	9.551e-63	2.7191e-64	7.2215e-66	1.7896e-67	4.1397e-69	8.9413e-71	1.804e-72
3.1151e-52	1.9783e-51	1.208e-50	7.0928e-50	4.0049e-49	2.1748e-48	1.1359e-47	5.7073e-47	2.7588e-46	1.2831e-45	5.7431e-45	2.4742e-44	1.0262e-43	4.0979e-43	1.576e-42	5.8387e-42	2.0841e-41	7.1688e-41	2.3769e-40	7.5985e-40	2.3425e-39	6.9662e-39	1.9988e-38	5.5347e-38	1.4795e-37	3.8185e-37	9.5188e-37	2.2923e-36	5.3342e-36	1.1997e-35	2.6087e-35	5.4851e-35	1.1155e-34	2.1948e-34	4.1788e-34	7.7006e-34	1.3738e-33	2.373e-33	3.9699e-33	6.4333e-33	1.01e-32	1.5366e-32	2.2656e-32	3.2378e-32	4.4859e-32	6.0259e-32	7.8491e-32	9.915e-32	1.2147e-31	1.4435e-31	1.664e-31	1.8608e-31	2.0186e-31	2.1245e-31	2.1693e-31	2.149e-31	2.0655e-31	1.9259e-31	1.7422e-31	1.5289e-31	1.3015e-31	1.0747e-31	8.6067e-32	6.6848e-32	5.0349e-32	3.6769e-32	2.6033e-32	1.7867e-32	1.1885e-32	7.6609e-33	4.7846e-33	2.8948e-33	1.6963e-33	9.6257e-34	5.2882e-34	2.8122e-34	1.4472e-34	7.2061e-35	3.4708e-35	1.6167e-35	7.2809e-36	3.1696e-36	1.3334e-36	5.4197e-37	2.1278e-37	8.0669e-38	2.9552e-38	1.068e-38	5.7012e-39	1.8507e-38	1.326e-37	9.5275e-37	6.4867e-36	4.1773e-35	2.5461e-34	1.4705e-33	8.0689e-33	4.2435e-32	2.2052e-31	1.2403e-30	8.9251e-30	8.8258e-29	1.0354e-27	1.231e-26	1.3825e-25	1.4342e-24	1.3664e-23	1.1945e-22	9.5899e-22	7.0798e-21	4.8137e-20	3.0194e-19	1.7504e-18	9.3958e-18	4.6803e-17	2.1689e-16	9.3798e-16	3.8018e-15	1.4533e-14	5.289e-14	1.8574e-13	6.406e-13	2.2097e-12	7.7149e-12	2.7239e-11	9.5972e-11	3.311e-10	1.0991e-09	3.4672e-09	1.0317e-08	2.8854e-08	7.5807e-08	1.8728e-07	4.3602e-07	9.5953e-07	2.0027e-06	3.9792e-06	7.5564e-06	1.3769e-05	2.4174e-05	4.1058e-05	6.7724e-05	0.00010889	0.00017125	0.00026418	0.00040075	0.00059891	0.00088302	0.0012857	0.0018501	0.0026322	0.0037046	0.005159	0.0071113	0.0097047	0.013115	0.017551	0.023264	0.030541	0.039711	0.051142	0.065237	0.082427	0.10317	0.12792	0.15717	0.19134	0.23088	0.27612	0.32738	0.38483	0.44856	0.51849	0.59441	0.67593	0.76253	0.8535	0.94799	1.045	1.1435	1.2422	1.3399	1.4354	1.5272	1.6142	1.6951	1.7687	1.834	1.89	1.9358	1.9708	1.9944	2.0063	2.0062	1.994	1.97	1.9344	1.8878	1.8308	1.7642	1.6889	1.6062	1.5172	1.4232	1.3256	1.2257	1.125	1.0247	0.92604	0.83028	0.73841	0.65129	0.56962	0.49394	0.4246	0.36178	0.3055	0.25564	0.21196	0.1741	0.14166	0.11415	0.091084	0.071957	0.056271	0.043553	0.033358	0.025282	0.018959	0.014069	0.010332	0.0075102	0.0054046	0.0038511	0.0027174	0.0018986	0.001313	0.00089819	0.00060715	0.00040499	0.0002661	0.00017188	0.0001089	6.7527e-05	4.0884e-05	2.4119e-05	1.3838e-05	7.7089e-06	4.1647e-06	2.1796e-06	1.104e-06	5.4071e-07	2.5577e-07	1.1666e-07	5.121e-08	2.1577e-08	8.7015e-09	3.348e-09	1.2252e-09	4.2525e-10	1.3966e-10	4.3323e-11	1.2684e-11	3.5058e-12	9.1571e-13	2.2648e-13	5.3163e-14	1.1869e-14	2.523e-15	5.1023e-16	9.7897e-17	1.7739e-17	3.0182e-18	4.792e-19	7.0579e-20	9.5915e-21	1.1971e-21	1.3668e-22	1.4228e-23	1.3467e-24	1.1566e-25	9.0076e-27	6.3796e-28	4.1672e-29	2.6303e-30	1.8075e-31	1.5993e-32	1.8594e-33	2.4473e-34	3.2366e-35	4.1031e-36	4.9144e-37	5.5375e-38	5.8608e-39	5.8215e-40	5.4233e-41	4.7357e-42	3.8739e-43	2.9672e-44	2.127e-45	1.4263e-46	8.9439e-48	5.2427e-49	2.8719e-50	1.4698e-51	7.026e-53	3.1367e-54	1.3077e-55	5.0907e-57	1.8504e-58	6.2811e-60	1.9911e-61	5.8956e-63	1.6309e-64	4.2162e-66	1.019e-67	2.303e-69
1.5718e-49	9.3577e-49	5.3623e-48	2.9578e-47	1.5706e-46	8.0293e-46	3.9523e-45	1.8735e-44	8.5531e-44	3.7614e-43	1.5936e-42	6.5061e-42	2.56e-41	9.7101e-41	3.5511e-40	1.2524e-39	4.2606e-39	1.3985e-38	4.4298e-38	1.3545e-37	3.9986e-37	1.14e-36	3.1399e-36	8.3559e-36	2.1492e-35	5.344e-35	1.2849e-34	2.9884e-34	6.7239e-34	1.4641e-33	3.0858e-33	6.297e-33	1.2444e-32	2.3822e-32	4.4183e-32	7.9413e-32	1.3835e-31	2.3369e-31	3.8275e-31	6.0801e-31	9.3693e-31	1.4008e-30	2.0323e-30	2.8616e-30	3.9111e-30	5.1894e-30	6.6851e-30	8.3624e-30	1.0158e-29	1.1984e-29	1.3733e-29	1.5284e-29	1.6524e-29	1.7354e-29	1.7704e-29	1.7545e-29	1.6891e-29	1.5797e-29	1.435e-29	1.2662e-29	1.0852e-29	9.0332e-30	7.3021e-30	5.7319e-30	4.3686e-30	3.2325e-30	2.3218e-30	1.6186e-30	1.095e-30	7.1882e-31	4.5776e-31	2.8274e-31	1.6936e-31	9.8363e-32	5.5378e-32	3.0216e-32	1.5975e-32	8.1821e-33	4.0587e-33	1.9495e-33	9.0645e-34	4.0791e-34	1.7761e-34	7.4808e-35	3.0471e-35	1.2001e-35	4.5719e-36	1.713e-36	8.5587e-37	2.1417e-36	1.3776e-35	9.1798e-35	5.8162e-34	3.4912e-33	1.9863e-32	1.0721e-31	5.4994e-31	2.6934e-30	1.2788e-29	6.1748e-29	3.4023e-28	2.4587e-27	2.2876e-26	2.3451e-25	2.363e-24	2.234e-23	1.9525e-22	1.5717e-21	1.1648e-20	7.9569e-20	5.0165e-19	2.9239e-18	1.5783e-17	7.9045e-17	3.6808e-16	1.5973e-15	6.4778e-15	2.4636e-14	8.8292e-14	3.002e-13	9.7775e-13	3.09e-12	9.619e-12	2.9901e-11	9.3475e-11	2.9299e-10	9.1025e-10	2.7614e-09	8.0708e-09	2.2506e-08	5.9532e-08	1.4899e-07	3.5264e-07	7.9034e-07	1.6809e-06	3.4024e-06	6.5761e-06	1.218e-05	2.17e-05	3.733e-05	6.2242e-05	0.00010096	0.00015986	0.0002479	0.00037748	0.00056575	0.00083605	0.0012199	0.001759	0.0025086	0.0035399	0.0049447	0.0068388	0.0093672	0.012708	0.017078	0.022735	0.02998	0.039161	0.050669	0.064937	0.082437	0.10367	0.12915	0.15942	0.19499	0.23636	0.28397	0.33819	0.39932	0.46749	0.54272	0.62487	0.71361	0.80844	0.90867	1.0135	1.1218	1.2326	1.3445	1.4562	1.5664	1.6737	1.7766	1.8738	1.9639	2.0459	2.1185	2.1807	2.2317	2.2709	2.2975	2.3113	2.3119	2.2995	2.274	2.2357	2.1853	2.1232	2.0503	1.9677	1.8764	1.7776	1.6728	1.5634	1.4508	1.3367	1.2224	1.1094	0.99903	0.8925	0.79087	0.69501	0.60563	0.52322	0.4481	0.38037	0.31999	0.26675	0.22032	0.18028	0.14612	0.11729	0.093232	0.073371	0.05716	0.044076	0.033637	0.025405	0.01899	0.01405	0.010291	0.0074624	0.005359	0.0038116	0.0026849	0.0018725	0.0012924	0.00088206	0.00059454	0.0003952	0.00025862	0.00016629	0.00010486	6.4711e-05	3.9013e-05	2.2939e-05	1.3136e-05	7.316e-06	3.959e-06	2.0793e-06	1.0587e-06	5.2178e-07	2.4849e-07	1.1409e-07	5.0373e-08	2.1325e-08	8.6305e-09	3.3299e-09	1.2219e-09	4.2556e-10	1.4052e-10	4.3976e-11	1.3049e-11	3.6754e-12	9.8428e-13	2.51e-13	6.0999e-14	1.412e-14	3.1068e-15	6.4731e-16	1.2709e-16	2.3386e-17	4.0104e-18	6.3765e-19	9.3568e-20	1.2621e-20	1.5593e-21	1.7598e-22	1.8101e-23	1.6955e-24	1.4492e-25	1.1428e-26	8.6111e-28	6.7886e-29	6.4851e-30	8.0207e-31	1.1582e-31	1.7246e-32	2.4919e-33	3.4209e-34	4.4324e-35	5.408e-36	6.2066e-37	6.695e-38	6.7836e-39	6.4523e-40	5.7579e-41	4.8183e-42	3.7792e-43	2.7769e-44	1.9109e-45	1.2309e-46	7.4207e-48	4.1854e-49	2.2081e-50	1.0895e-51	5.0264e-53	2.1683e-54	8.7458e-56	3.2984e-57	1.1633e-58	3.8368e-60	1.1838e-61	3.4174e-63	9.2337e-65	2.336e-66
6.2041e-47	3.4651e-46	1.8647e-45	9.6695e-45	4.832e-44	2.3271e-43	1.0803e-42	4.8347e-42	2.0861e-41	8.6803e-41	3.4836e-40	1.3487e-39	5.038e-39	1.8162e-38	6.32e-38	2.1233e-37	6.8891e-37	2.159e-36	6.5375e-36	1.9131e-35	5.4115e-35	1.4801e-34	3.9152e-34	1.0019e-33	2.481e-33	5.9464e-33	1.3798e-32	3.1007e-32	6.7493e-32	1.4234e-31	2.9094e-31	5.7647e-31	1.1075e-30	2.0635e-30	3.7298e-30	6.5411e-30	1.1133e-29	1.8394e-29	2.9505e-29	4.596e-29	6.9535e-29	1.022e-28	1.4593e-28	2.0249e-28	2.7308e-28	3.5796e-28	4.5615e-28	5.6513e-28	6.8076e-28	7.9743e-28	9.0839e-28	1.0064e-27	1.0844e-27	1.1364e-27	1.1583e-27	1.1484e-27	1.1074e-27	1.0386e-27	9.4744e-28	8.4054e-28	7.2519e-28	6.0843e-28	4.9636e-28	3.937e-28	3.0358e-28	2.2755e-28	1.6577e-28	1.1736e-28	8.0732e-29	5.3952e-29	3.5021e-29	2.2077e-29	1.3513e-29	8.0296e-30	4.6309e-30	2.5916e-30	1.407e-30	7.4096e-31	3.7837e-31	1.8732e-31	8.9881e-32	4.1791e-32	1.8823e-32	8.2115e-33	3.4684e-33	1.4182e-33	5.6158e-34	2.1826e-34	1.0483e-34	2.0409e-34	1.1645e-33	7.1951e-33	4.2466e-32	2.3784e-31	1.2645e-30	6.3863e-30	3.068e-29	1.4057e-28	6.193e-28	2.689e-27	1.2304e-26	6.7125e-26	4.7462e-25	4.0224e-24	3.5662e-23	3.0523e-22	2.4441e-21	1.8126e-20	1.2419e-19	7.8622e-19	4.6043e-18	2.4981e-17	1.2578e-16	5.8878e-16	2.5676e-15	1.0454e-14	3.9841e-14	1.4256e-13	4.8078e-13	1.5364e-12	4.6859e-12	1.377e-11	3.9451e-11	1.1155e-10	3.1435e-10	8.8586e-10	2.4863e-09	6.8821e-09	1.8571e-08	4.8352e-08	1.2059e-07	2.8681e-07	6.4938e-07	1.3997e-06	2.8757e-06	5.6443e-06	1.0613e-05	1.9176e-05	3.3413e-05	5.6336e-05	9.2241e-05	0.00014717	0.00022954	0.00035105	0.00052778	0.00078173	0.0011427	0.0016504	0.0023579	0.0033341	0.0046682	0.0064744	0.0088961	0.012111	0.016338	0.021839	0.028922	0.037946	0.049322	0.063505	0.080999	0.10234	0.1281	0.15887	0.19522	0.23774	0.28694	0.34329	0.40715	0.47877	0.55824	0.64551	0.74032	0.84222	0.95056	1.0645	1.1831	1.3051	1.4292	1.5541	1.6783	1.8002	1.9185	2.0316	2.1381	2.2367	2.3261	2.4052	2.473	2.5287	2.5715	2.6009	2.6165	2.6181	2.6056	2.5791	2.5388	2.4852	2.419	2.3409	2.2519	2.153	2.0456	1.9311	1.8109	1.6865	1.5597	1.432	1.3051	1.1803	1.0592	0.94292	0.83257	0.72903	0.63297	0.54484	0.46489	0.39316	0.32951	0.27365	0.22517	0.18355	0.1482	0.11851	0.093847	0.073581	0.057115	0.043887	0.03338	0.025133	0.018733	0.013824	0.010103	0.0073123	0.0052429	0.0037237	0.0026194	0.0018243	0.001257	0.00085604	0.00057548	0.00038133	0.00024865	0.00015928	0.00010006	6.1544e-05	3.7011e-05	2.1733e-05	1.2446e-05	6.9435e-06	3.7695e-06	1.9886e-06	1.0179e-06	5.0448e-07	2.4155e-07	1.1144e-07	4.9407e-08	2.099e-08	8.5238e-09	3.3018e-09	1.2181e-09	4.2766e-10	1.4286e-10	4.5426e-11	1.3763e-11	3.9771e-12	1.0966e-12	2.8844e-13	7.2246e-14	1.718e-14	3.8629e-15	8.1728e-16	1.6188e-16	2.987e-17	5.1111e-18	8.0778e-19	1.175e-19	1.5684e-20	1.9168e-21	2.1424e-22	2.1936e-23	2.0753e-24	1.8644e-25	1.7047e-26	1.7925e-27	2.367e-28	3.7134e-29	6.1642e-30	1.0077e-30	1.5763e-31	2.3362e-32	3.2694e-33	4.3141e-34	5.3624e-35	6.2746e-36	6.9068e-37	7.1478e-38	6.9506e-39	6.3474e-40	5.4411e-41	4.3761e-42	3.3008e-43	2.3342e-44	1.5469e-45	9.6052e-47	5.5866e-48	3.043e-49	1.5521e-50	7.412e-52	3.314e-53	1.3873e-54	5.4379e-56	1.996e-57	6.8622e-59	2.2101e-60	6.6705e-62	1.8873e-63
1.9234e-44	1.0086e-43	5.101e-43	2.4885e-42	1.1712e-41	5.3178e-41	2.3299e-40	9.8516e-40	4.0207e-39	1.5841e-38	6.0264e-38	2.2141e-37	7.8575e-37	2.6941e-36	8.9266e-36	2.8589e-35	8.8524e-35	2.6507e-34	7.6777e-34	2.1516e-33	5.8355e-33	1.5321e-32	3.8948e-32	9.5899e-32	2.2876e-31	5.2879e-31	1.1848e-30	2.574e-30	5.423e-30	1.1084e-29	2.198e-29	4.2306e-29	7.9049e-29	1.4342e-28	2.5274e-28	4.3267e-28	7.1971e-28	1.1635e-27	1.8285e-27	2.7939e-27	4.1513e-27	5.9994e-27	8.4342e-27	1.1536e-26	1.5354e-26	1.9888e-26	2.5074e-26	3.0771e-26	3.6763e-26	4.2763e-26	4.8433e-26	5.3414e-26	5.7362e-26	5.9989e-26	6.1096e-26	6.0595e-26	5.8526e-26	5.5048e-26	5.0421e-26	4.497e-26	3.9053e-26	3.3021e-26	2.7182e-26	2.1782e-26	1.699e-26	1.2897e-26	9.5275e-27	6.8481e-27	4.7885e-27	3.2568e-27	2.1542e-27	1.3855e-27	8.6628e-28	5.2645e-28	3.109e-28	1.7838e-28	9.9409e-29	5.38e-29	2.8269e-29	1.4417e-29	7.1354e-30	3.4261e-30	1.5955e-30	7.2049e-31	3.154e-31	1.3382e-31	5.5045e-32	2.2197e-32	1.0458e-32	1.6137e-32	8.0537e-32	4.6101e-31	2.5369e-30	1.3272e-29	6.6011e-29	3.1233e-28	1.4073e-27	6.0491e-27	2.492e-26	9.9685e-26	4.0165e-25	1.7704e-24	9.5269e-24	6.3955e-23	4.8344e-22	3.6942e-21	2.6976e-20	1.8418e-19	1.1675e-18	6.86e-18	3.7379e-17	1.8911e-16	8.8974e-16	3.8999e-15	1.5956e-14	6.1068e-14	2.1914e-13	7.3936e-13	2.3534e-12	7.0976e-12	2.0397e-11	5.6264e-11	1.5035e-10	3.9322e-10	1.0162e-09	2.6114e-09	6.6802e-09	1.6933e-08	4.2189e-08	1.024e-07	2.4026e-07	5.4204e-07	1.1722e-06	2.4273e-06	4.8144e-06	9.1594e-06	1.6751e-05	2.9529e-05	5.0323e-05	8.317e-05	0.00013374	0.00020991	0.00032256	0.00048661	0.00072247	0.0010578	0.0015299	0.0021884	0.0030988	0.0043463	0.0060408	0.0083217	0.011364	0.015382	0.020637	0.02744	0.036157	0.047205	0.061059	0.078242	0.099326	0.12492	0.15566	0.19218	0.23513	0.28511	0.34267	0.40826	0.48223	0.56478	0.65592	0.75548	0.8631	0.97817	1.0999	1.2273	1.3592	1.4942	1.631	1.768	1.9036	2.0363	2.1645	2.2866	2.4013	2.5071	2.6029	2.6875	2.76	2.8196	2.8656	2.8974	2.9147	2.9172	2.9049	2.8778	2.8362	2.7804	2.7111	2.6289	2.5348	2.4298	2.3151	2.1922	2.0625	1.9277	1.7894	1.6493	1.5093	1.3708	1.2356	1.1049	0.98021	0.86244	0.75248	0.65097	0.55828	0.4746	0.39987	0.33388	0.27624	0.22644	0.18389	0.14792	0.11785	0.09298	0.07264	0.05619	0.043034	0.032632	0.024501	0.018217	0.013416	0.0097875	0.0070745	0.0050666	0.003595	0.0025265	0.0017575	0.0012092	0.00082199	0.00055133	0.00036435	0.0002369	0.00015132	9.4821e-05	5.8217e-05	3.4981e-05	2.0548e-05	1.1787e-05	6.5952e-06	3.5944e-06	1.9048e-06	9.7964e-07	4.878e-07	2.3458e-07	1.0866e-07	4.8357e-08	2.0631e-08	8.4228e-09	3.2862e-09	1.2245e-09	4.3569e-10	1.4808e-10	4.8095e-11	1.4931e-11	4.429e-12	1.2536e-12	3.3771e-13	8.6298e-14	2.083e-14	4.7272e-15	1.004e-15	1.9871e-16	3.6497e-17	6.1989e-18	9.7072e-19	1.3982e-19	1.8502e-20	2.252e-21	2.5391e-22	2.71e-23	2.8893e-24	3.3969e-25	4.8313e-26	8.1861e-27	1.5004e-27	2.7531e-28	4.8756e-29	8.2198e-30	1.3126e-30	1.9813e-31	2.8239e-32	3.7971e-33	4.8137e-34	5.7494e-35	6.466e-36	6.8431e-37	6.8117e-38	6.3741e-39	5.6045e-40	4.6283e-41	3.5886e-42	2.6114e-43	1.783e-44	1.142e-45	6.8594e-47	3.8634e-48	2.0402e-49	1.0101e-50	4.6884e-52	2.0403e-53	8.3259e-55	3.1862e-56	1.1437e-57	3.8521e-59	1.2177e-60
4.7029e-42	2.3172e-41	1.1024e-40	5.0638e-40	2.2463e-39	9.6238e-39	3.9827e-38	1.5924e-37	6.1517e-37	2.2968e-36	8.289e-36	2.8922e-35	9.7585e-35	3.1847e-34	1.0055e-33	3.0721e-33	9.0848e-33	2.601e-32	7.2114e-32	1.9367e-31	5.0395e-31	1.2709e-30	3.107e-30	7.3653e-30	1.6935e-29	3.7778e-29	8.1782e-29	1.7186e-28	3.5066e-28	6.9489e-28	1.3377e-27	2.5024e-27	4.5498e-27	8.0422e-27	1.3823e-26	2.3109e-26	3.7583e-26	5.9477e-26	9.1606e-26	1.3734e-25	2.0049e-25	2.8499e-25	3.9455e-25	5.321e-25	6.9911e-25	8.9501e-25	1.1166e-24	1.3576e-24	1.6089e-24	1.8587e-24	2.0932e-24	2.2982e-24	2.4601e-24	2.5675e-24	2.6127e-24	2.5922e-24	2.5077e-24	2.3653e-24	2.1751e-24	1.9501e-24	1.7045e-24	1.4522e-24	1.2061e-24	9.7621e-25	7.7005e-25	5.9189e-25	4.4326e-25	3.2337e-25	2.2978e-25	1.5901e-25	1.0714e-25	7.0275e-26	4.4866e-26	2.7875e-26	1.6849e-26	9.9067e-27	5.6646e-27	3.1491e-27	1.7017e-27	8.9366e-28	4.5595e-28	2.2596e-28	1.0874e-28	5.0799e-29	2.3033e-29	1.0134e-29	4.3277e-30	1.8105e-30	8.4933e-31	1.0659e-30	4.5841e-30	2.4267e-29	1.2462e-28	6.0972e-28	2.8402e-27	1.2604e-26	5.3336e-26	2.155e-25	8.3367e-25	3.1108e-24	1.1422e-23	4.3341e-23	1.857e-22	9.7087e-22	6.0297e-21	4.0183e-20	2.6487e-19	1.6594e-18	9.7281e-18	5.31e-17	2.6959e-16	1.274e-15	5.6111e-15	2.3071e-14	8.8722e-14	3.1976e-13	1.0825e-12	3.4511e-12	1.0393e-11	2.9672e-11	8.0695e-11	2.1028e-10	5.2889e-10	1.2948e-09	3.1117e-09	7.3937e-09	1.7434e-08	4.0771e-08	9.4142e-08	2.1323e-07	4.7056e-07	1.0061e-06	2.0761e-06	4.1266e-06	7.8961e-06	1.4555e-05	2.5886e-05	4.451e-05	7.4185e-05	0.00012019	0.00018982	0.00029313	0.00044381	0.00066058	0.00096877	0.0014026	0.0020079	0.0028456	0.0039955	0.0055613	0.0076758	0.010507	0.014263	0.0192	0.025626	0.033902	0.044451	0.057755	0.074351	0.094832	0.11984	0.15004	0.18613	0.22881	0.27876	0.3366	0.4029	0.47807	0.56244	0.65611	0.75901	0.87085	0.99111	1.1191	1.2537	1.3939	1.5384	1.6856	1.834	1.9819	2.1277	2.2697	2.4063	2.536	2.6574	2.7692	2.8701	2.9591	3.0353	3.0979	3.1464	3.1802	3.1989	3.2024	3.1905	3.1633	3.1211	3.064	2.9926	2.9076	2.8098	2.7001	2.5798	2.4502	2.3126	2.1689	2.0206	1.8696	1.7177	1.5667	1.4182	1.2739	1.1353	1.0036	0.8799	0.76495	0.65934	0.56338	0.47715	0.40052	0.33316	0.27461	0.22426	0.18144	0.14541	0.11542	0.090744	0.070652	0.054476	0.041596	0.031457	0.023563	0.017485	0.012856	0.0093679	0.0067653	0.004842	0.0034337	0.0024116	0.0016762	0.001152	0.00078188	0.00052347	0.00034525	0.00022403	0.00014285	8.9412e-05	5.4878e-05	3.2996e-05	1.9415e-05	1.1167e-05	6.2702e-06	3.431e-06	1.826e-06	9.4305e-07	4.7151e-07	2.2767e-07	1.0592e-07	4.7379e-08	2.0345e-08	8.377e-09	3.3051e-09	1.2492e-09	4.5227e-10	1.5684e-10	5.2068e-11	1.6529e-11	5.007e-12	1.4431e-12	3.9431e-13	1.0172e-13	2.4669e-14	5.6006e-15	1.1856e-15	2.3322e-16	4.2497e-17	7.1562e-18	1.1122e-18	1.5968e-19	2.1303e-20	2.6879e-21	3.3462e-22	4.4484e-23	6.8871e-24	1.2582e-24	2.5251e-25	5.1577e-26	1.0271e-26	1.9581e-27	3.5487e-28	6.096e-29	9.9115e-30	1.5239e-30	2.2138e-31	3.0366e-32	3.9305e-33	4.7975e-34	5.519e-35	5.9804e-36	6.1011e-37	5.8573e-38	5.2893e-39	4.491e-40	3.584e-41	2.6876e-42	1.8932e-43	1.2524e-44	7.7804e-46	4.5379e-47	2.4848e-48	1.2773e-49	6.1646e-51	2.7933e-52	1.1886e-53	4.7499e-55	1.7833e-56	6.2916e-58
9.1095e-40	4.2212e-39	1.8905e-38	8.184e-38	3.4248e-37	1.3857e-36	5.4212e-36	2.0512e-35	7.5075e-35	2.6584e-34	9.1089e-34	3.0208e-33	9.6985e-33	3.015e-32	9.0779e-32	2.6479e-31	7.484e-31	2.0502e-30	5.4452e-30	1.4024e-29	3.5037e-29	8.493e-29	1.998e-28	4.5632e-28	1.012e-27	2.1799e-27	4.5623e-27	9.2793e-27	1.8347e-26	3.5271e-26	6.595e-26	1.1997e-25	2.1235e-25	3.6584e-25	6.1361e-25	1.0022e-24	1.5943e-24	2.4707e-24	3.731e-24	5.4909e-24	7.877e-24	1.1017e-23	1.5025e-23	1.9984e-23	2.5926e-23	3.2812e-23	4.0516e-23	4.8815e-23	5.7394e-23	6.5858e-23	7.3756e-23	8.0626e-23	8.603e-23	8.9607e-23	9.1108e-23	9.0429e-23	8.7616e-23	8.2867e-23	7.6505e-23	6.8942e-23	6.0638e-23	5.2053e-23	4.3605e-23	3.5645e-23	2.8429e-23	2.212e-23	1.6789e-23	1.2428e-23	8.9714e-24	6.3143e-24	4.3323e-24	2.8972e-24	1.8879e-24	1.1986e-24	7.4127e-25	4.4643e-25	2.6178e-25	1.4942e-25	8.2999e-26	4.4856e-26	2.358e-26	1.2054e-26	5.9906e-27	2.8936e-27	1.3581e-27	6.1923e-28	2.7436e-28	1.1906e-28	5.6207e-29	5.915e-29	2.1609e-28	1.0549e-27	5.0594e-27	2.3175e-26	1.0123e-25	4.2188e-25	1.6788e-24	6.3855e-24	2.3261e-23	8.1507e-23	2.7783e-22	9.4738e-22	3.427e-21	1.4269e-20	7.1057e-20	4.0075e-19	2.3429e-18	1.3365e-17	7.2288e-17	3.6652e-16	1.7357e-15	7.6724e-15	3.1686e-14	1.2243e-13	4.4332e-13	1.5074e-12	4.8233e-12	1.4559e-11	4.1568e-11	1.1264e-10	2.9087e-10	7.1926e-10	1.7135e-09	3.96e-09	8.9442e-09	1.9878e-08	4.3685e-08	9.5103e-08	2.0479e-07	4.3443e-07	9.0317e-07	1.8309e-06	3.6049e-06	6.8756e-06	1.2688e-05	2.2655e-05	3.9172e-05	6.5693e-05	0.00010708	0.00017006	0.00026382	0.00040087	0.00059815	0.00087859	0.0012732	0.0018235	0.002585	0.0036311	0.005058	0.0069897	0.0095845	0.013041	0.017605	0.023574	0.031304	0.041212	0.053778	0.069546	0.089118	0.11315	0.14235	0.17745	0.21919	0.26833	0.32556	0.39153	0.46677	0.55168	0.6465	0.75125	0.86576	0.98958	1.1221	1.2623	1.4091	1.5612	1.7172	1.8753	2.0339	2.1913	2.3457	2.4955	2.639	2.7748	2.9014	3.0176	3.1222	3.2143	3.2932	3.358	3.4082	3.4435	3.4634	3.4678	3.4566	3.4297	3.3874	3.3299	3.2576	3.1711	3.071	2.9583	2.834	2.6993	2.5558	2.4049	2.2484	2.0882	1.926	1.7637	1.6033	1.4465	1.2949	1.15	1.013	0.88488	0.76647	0.6582	0.5603	0.47276	0.39534	0.32761	0.26901	0.21887	0.17642	0.14087	0.11143	0.087306	0.067758	0.05209	0.039669	0.02993	0.022377	0.01658	0.012178	0.0088678	0.0064017	0.0045808	0.0032479	0.0022804	0.0015842	0.0010879	0.00073764	0.00049326	0.00032493	0.00021064	0.00013424	8.4035e-05	5.1626e-05	3.1097e-05	1.8346e-05	1.0586e-05	5.966e-06	3.2773e-06	1.7512e-06	9.0812e-07	4.5601e-07	2.2125e-07	1.0353e-07	4.6652e-08	2.022e-08	8.4228e-09	3.3705e-09	1.295e-09	4.7744e-10	1.687e-10	5.7031e-11	1.84e-11	5.6474e-12	1.643e-12	4.5131e-13	1.1658e-13	2.8215e-14	6.375e-15	1.3407e-15	2.618e-16	4.7406e-17	7.9654e-18	1.2482e-18	1.8509e-19	2.6868e-20	4.066e-21	6.9226e-22	1.3659e-22	2.9828e-23	6.7276e-24	1.4957e-24	3.2046e-25	6.5539e-26	1.2744e-26	2.3514e-27	4.1126e-28	6.8117e-29	1.0677e-29	1.5826e-30	2.2168e-31	2.9328e-32	3.6624e-33	4.3144e-34	4.7923e-35	5.0167e-36	4.9471e-37	4.5937e-38	4.0152e-39	3.3024e-40	2.5552e-41	1.8594e-42	1.2724e-43	8.1859e-45	4.9512e-46	2.8153e-47	1.5049e-48	7.5629e-50	3.5737e-51	1.5881e-52	6.6384e-54	2.6109e-55
1.4041e-37	6.1247e-37	2.5847e-36	1.0554e-35	4.1704e-35	1.5949e-34	5.9042e-34	2.116e-33	7.3437e-33	2.4684e-32	8.0371e-32	2.5356e-31	7.7523e-31	2.2976e-30	6.6025e-30	1.8401e-29	4.9747e-29	1.305e-28	3.3227e-28	8.2132e-28	1.9715e-27	4.5968e-27	1.0414e-26	2.2929e-26	4.908e-26	1.0216e-25	2.0683e-25	4.0741e-25	7.8103e-25	1.4575e-24	2.6485e-24	4.6872e-24	8.0815e-24	1.3577e-23	2.2233e-23	3.5494e-23	5.5253e-23	8.3889e-23	1.2425e-22	1.7956e-22	2.5324e-22	3.486e-22	4.6847e-22	6.1469e-22	7.8763e-22	9.8568e-22	1.2049e-21	1.4388e-21	1.6786e-21	1.9134e-21	2.1313e-21	2.3198e-21	2.4676e-21	2.5651e-21	2.606e-21	2.5875e-21	2.5109e-21	2.3811e-21	2.2068e-21	1.9986e-21	1.7688e-21	1.5295e-21	1.2922e-21	1.0665e-21	8.5988e-22	6.7712e-22	5.2072e-22	3.9101e-22	2.8665e-22	2.0513e-22	1.4326e-22	9.7635e-23	6.4915e-23	4.2098e-23	2.6624e-23	1.6417e-23	9.8671e-24	5.7795e-24	3.2982e-24	1.8334e-24	9.9243e-25	5.2301e-25	2.6827e-25	1.3389e-25	6.5008e-26	3.0697e-26	1.4101e-26	6.3447e-27	3.0376e-27	2.7678e-27	8.4935e-27	3.807e-26	1.7062e-25	7.3261e-25	3.0045e-24	1.1773e-23	4.4112e-23	1.5818e-22	5.4367e-22	1.796e-21	5.7405e-21	1.8041e-20	5.7783e-20	2.0072e-19	8.0567e-19	3.7504e-18	1.899e-17	9.7328e-17	4.8283e-16	2.2698e-15	1.0026e-14	4.1502e-14	1.6095e-13	5.8535e-13	1.9994e-12	6.4255e-12	1.9469e-11	5.5743e-11	1.5121e-10	3.898e-10	9.5832e-10	2.2565e-09	5.1152e-09	1.1228e-08	2.402e-08	5.0389e-08	1.042e-07	2.1303e-07	4.3089e-07	8.6054e-07	1.691e-06	3.2566e-06	6.1236e-06	1.1213e-05	1.9959e-05	3.4521e-05	5.8032e-05	9.4924e-05	0.00015133	0.00023562	0.0003591	0.00053702	0.00078992	0.0011454	0.0016408	0.0023257	0.0032665	0.0045504	0.0062913	0.0086356	0.011769	0.015923	0.021382	0.028487	0.037645	0.049326	0.064068	0.082475	0.10521	0.133	0.16661	0.20681	0.25441	0.31018	0.37485	0.44903	0.53325	0.62784	0.73296	0.84854	0.97424	1.1095	1.2535	1.4051	1.5631	1.7259	1.892	2.0597	2.227	2.3923	2.5537	2.7096	2.8583	2.9984	3.1286	3.2478	3.3548	3.4488	3.5292	3.5952	3.6466	3.6828	3.7036	3.7088	3.6984	3.6722	3.6305	3.5734	3.5012	3.4143	3.3133	3.1991	3.0725	2.9346	2.7869	2.6308	2.468	2.3003	2.1296	1.9579	1.787	1.619	1.4557	1.2985	1.1491	1.0085	0.87774	0.75744	0.648	0.54952	0.4619	0.38478	0.31765	0.25985	0.21062	0.16915	0.13459	0.1061	0.082869	0.064126	0.049168	0.037359	0.028135	0.021005	0.01555	0.011415	0.0083108	0.006	0.0042943	0.0030453	0.0021383	0.0014853	0.0010196	0.00069104	0.00046188	0.00030418	0.0001972	0.00012575	7.8822e-05	4.8518e-05	2.9301e-05	1.734e-05	1.0042e-05	5.6802e-06	3.1326e-06	1.6808e-06	8.7562e-07	4.4199e-07	2.158e-07	1.0177e-07	4.6293e-08	2.0295e-08	8.5676e-09	3.4796e-09	1.358e-09	5.0842e-10	1.8222e-10	6.2341e-11	2.0294e-11	6.2637e-12	1.8263e-12	5.0117e-13	1.2901e-13	3.1059e-14	6.9763e-15	1.46e-15	2.8485e-16	5.2035e-17	9.0099e-18	1.5198e-18	2.6261e-19	4.9569e-20	1.0605e-20	2.5097e-21	6.2047e-22	1.5288e-22	3.6571e-23	8.3908e-24	1.8366e-24	3.8254e-25	7.5709e-26	1.4223e-26	2.5344e-27	4.2801e-28	6.8459e-29	1.0364e-29	1.484e-30	2.0088e-31	2.5691e-32	3.1027e-33	3.5367e-34	3.8032e-35	3.8568e-36	3.687e-37	3.3215e-38	2.8189e-39	2.2533e-40	1.6962e-41	1.2021e-42	8.0207e-44	5.0378e-45	2.9788e-46	1.6581e-47	8.6901e-49	4.2887e-50	1.9935e-51	8.7295e-53
1.7302e-35	7.1114e-35	2.8307e-34	1.0913e-33	4.0757e-33	1.4747e-32	5.1703e-32	1.7568e-31	5.7867e-31	1.848e-30	5.7228e-30	1.719e-29	5.0097e-29	1.4167e-28	3.8889e-28	1.0364e-27	2.6824e-27	6.7437e-27	1.6473e-26	3.9111e-26	9.0272e-26	2.0262e-25	4.4236e-25	9.3966e-25	1.9426e-24	3.9098e-24	7.6626e-24	1.4628e-23	2.7206e-23	4.9313e-23	8.7132e-23	1.5012e-22	2.5224e-22	4.1349e-22	6.6138e-22	1.0325e-21	1.5735e-21	2.3416e-21	3.403e-21	4.831e-21	6.7006e-21	9.0816e-21	1.203e-20	1.5577e-20	1.9718e-20	2.4406e-20	2.954e-20	3.4969e-20	4.0488e-20	4.5855e-20	5.0804e-20	5.5067e-20	5.8396e-20	6.0589e-20	6.1506e-20	6.1091e-20	5.937e-20	5.6451e-20	5.2514e-20	4.7794e-20	4.2553e-20	3.7061e-20	3.1573e-20	2.6306e-20	2.1434e-20	1.7077e-20	1.3303e-20	1.013e-20	7.5392e-21	5.4835e-21	3.8969e-21	2.7054e-21	1.8344e-21	1.2146e-21	7.852e-22	4.9545e-22	3.0508e-22	1.8328e-22	1.0739e-22	6.1366e-23	3.4186e-23	1.8561e-23	9.82e-24	5.0609e-24	2.5402e-24	1.2413e-24	5.9082e-25	2.755e-25	1.3448e-25	1.0945e-25	2.8033e-25	1.1471e-24	4.8047e-24	1.9361e-23	7.4645e-23	2.7538e-22	9.7278e-22	3.2932e-21	1.0697e-20	3.3401e-20	1.0069e-19	2.9584e-19	8.6551e-19	2.628e-18	8.7784e-18	3.356e-17	1.439e-16	6.504e-16	2.9288e-15	1.2708e-14	5.2287e-14	2.0271e-13	7.3896e-13	2.5333e-12	8.1753e-12	2.4875e-11	7.1499e-11	1.9455e-10	5.0237e-10	1.2345e-09	2.8965e-09	6.513e-09	1.4099e-08	2.953e-08	6.0178e-08	1.1999e-07	2.3528e-07	4.5533e-07	8.712e-07	1.6475e-06	3.0734e-06	5.6395e-06	1.0147e-05	1.7859e-05	3.0688e-05	5.1439e-05	8.4103e-05	0.00013422	0.00020934	0.00031963	0.00047872	0.00070487	0.0010225	0.0014645	0.0020748	0.0029121	0.0040544	0.0056042	0.0076945	0.010495	0.014222	0.019139	0.02557	0.033904	0.044593	0.058162	0.075207	0.096388	0.12243	0.15411	0.19225	0.23768	0.29123	0.35369	0.42578	0.50813	0.60118	0.7052	0.82026	0.94615	1.0824	1.2283	1.3829	1.5448	1.7127	1.885	2.0598	2.2354	2.4098	2.5812	2.7479	2.9082	3.0605	3.2034	3.3357	3.4563	3.5644	3.6592	3.74	3.8065	3.8582	3.8948	3.9162	3.9222	3.9126	3.8875	3.8469	3.7908	3.7196	3.6334	3.5328	3.4185	3.2911	3.1518	3.0017	2.8423	2.675	2.5018	2.3245	2.1451	1.9656	1.788	1.6143	1.4463	1.2855	1.1334	0.991	0.85924	0.73864	0.62947	0.53175	0.44523	0.36947	0.30384	0.24762	0.19998	0.16003	0.12691	0.099723	0.077658	0.059935	0.045852	0.034776	0.026155	0.01951	0.014437	0.010598	0.0077184	0.0055753	0.0039926	0.002833	0.0019901	0.0013828	0.00094942	0.00064357	0.00043031	0.00028357	0.00018404	0.00011755	7.384e-05	4.5574e-05	2.7609e-05	1.6396e-05	9.5296e-06	5.4119e-06	2.9973e-06	1.6159e-06	8.464e-07	4.3003e-07	2.116e-07	1.0071e-07	4.6309e-08	2.0548e-08	8.7863e-09	3.6149e-09	1.4281e-09	5.4044e-10	1.9533e-10	6.7207e-11	2.1939e-11	6.7718e-12	1.9699e-12	5.385e-13	1.3801e-13	3.3116e-14	7.4431e-15	1.5729e-15	3.1581e-16	6.1612e-17	1.2156e-17	2.5576e-18	5.9596e-19	1.5257e-19	4.1088e-20	1.1139e-20	2.955e-21	7.5596e-22	1.852e-22	4.3305e-23	9.6468e-24	2.0448e-24	4.1206e-25	7.8876e-26	1.4331e-26	2.4699e-27	4.0351e-28	6.2447e-29	9.1498e-30	1.2685e-30	1.6632e-31	2.0613e-32	2.4138e-33	2.6694e-34	2.7869e-35	2.7459e-36	2.5526e-37	2.2381e-38	1.8506e-39	1.4427e-40	1.0604e-41	7.3467e-43	4.7984e-44	2.9544e-45	1.715e-46	9.3865e-48	4.8451e-49	2.3591e-50
1.7126e-33	6.6395e-33	2.4953e-32	9.0922e-32	3.2125e-31	1.1008e-30	3.6589e-30	1.1799e-29	3.692e-29	1.1213e-28	3.3057e-28	9.4632e-28	2.631e-27	7.106e-27	1.8649e-26	4.7569e-26	1.1796e-25	2.8446e-25	6.6723e-25	1.5228e-24	3.3823e-24	7.3134e-24	1.5399e-23	3.1581e-23	6.3107e-23	1.229e-22	2.3331e-22	4.3192e-22	7.7988e-22	1.3739e-21	2.3619e-21	3.9637e-21	6.4946e-21	1.0393e-20	1.6246e-20	2.4814e-20	3.7041e-20	5.4048e-20	7.7107e-20	1.0757e-19	1.4679e-19	1.9595e-19	2.5594e-19	3.2712e-19	4.0921e-19	5.0108e-19	6.0068e-19	7.0501e-19	8.1024e-19	9.1188e-19	1.0051e-18	1.0849e-18	1.1471e-18	1.1879e-18	1.205e-18	1.1973e-18	1.1652e-18	1.1108e-18	1.0371e-18	9.4845e-19	8.4944e-19	7.4501e-19	6.3984e-19	5.3805e-19	4.4296e-19	3.5698e-19	2.8159e-19	2.1737e-19	1.6419e-19	1.2134e-19	8.7706e-20	6.2001e-20	4.2857e-20	2.896e-20	1.9126e-20	1.2344e-20	7.7826e-21	4.7926e-21	2.882e-21	1.6918e-21	9.6931e-22	5.4188e-22	2.9551e-22	1.5715e-22	8.1484e-23	4.1182e-23	2.0293e-23	9.8013e-24	4.8956e-24	3.6611e-24	7.8257e-24	2.9024e-23	1.1359e-22	4.3002e-22	1.5606e-21	5.4277e-21	1.8101e-20	5.7929e-20	1.7809e-19	5.2671e-19	1.5029e-18	4.1619e-18	1.1332e-17	3.114e-17	9.0174e-17	2.8857e-16	1.0377e-15	4.0586e-15	1.6349e-14	6.4936e-14	2.4797e-13	8.9938e-13	3.0829e-12	9.9721e-12	3.0448e-11	8.7856e-11	2.3996e-10	6.2162e-10	1.5308e-09	3.5931e-09	8.0626e-09	1.7355e-08	3.5981e-08	7.2168e-08	1.4073e-07	2.6816e-07	5.0168e-07	9.2497e-07	1.6848e-06	3.0343e-06	5.3988e-06	9.473e-06	1.6354e-05	2.7717e-05	4.6037e-05	7.4859e-05	0.00011913	0.00018559	0.00028334	0.00042448	0.00062512	0.00090672	0.001298	0.0018372	0.0025758	0.0035821	0.0049468	0.0067883	0.00926	0.012557	0.016923	0.02266	0.030129	0.039763	0.052063	0.067605	0.087038	0.11108	0.1405	0.17614	0.21886	0.26953	0.329	0.39807	0.47745	0.56772	0.66928	0.7823	0.90673	1.0423	1.1882	1.3438	1.5078	1.6789	1.8553	2.0355	2.2175	2.3994	2.5792	2.7552	2.9255	3.0886	3.2428	3.387	3.52	3.6408	3.7488	3.8432	3.9236	3.9897	4.0412	4.0779	4.0995	4.1061	4.0974	4.0735	4.0343	3.9799	3.9103	3.8258	3.7267	3.6135	3.4868	3.3475	3.1967	3.0357	2.8659	2.689	2.507	2.3218	2.1354	1.9501	1.7677	1.5902	1.4194	1.2569	1.1039	0.96154	0.83044	0.71108	0.60361	0.5079	0.42359	0.35015	0.28686	0.23292	0.18743	0.14948	0.11816	0.092574	0.071902	0.055369	0.042282	0.032026	0.024067	0.017947	0.013282	0.0097551	0.0071098	0.0051403	0.0036847	0.0026168	0.0018398	0.0012793	0.00087909	0.00059645	0.00039926	0.00026351	0.00017135	0.00010971	6.911e-05	4.279e-05	2.6013e-05	1.5505e-05	9.0482e-06	5.1609e-06	2.8723e-06	1.5571e-06	8.2092e-07	4.2025e-07	2.086e-07	1.0026e-07	4.6586e-08	2.0895e-08	9.0284e-09	3.7497e-09	1.4929e-09	5.6812e-10	2.06e-10	7.0946e-11	2.3135e-11	7.1233e-12	2.0663e-12	5.6395e-13	1.4486e-13	3.5142e-14	8.1226e-15	1.8221e-15	4.0961e-16	9.6322e-17	2.4543e-17	6.7943e-18	1.9834e-18	5.8761e-19	1.7169e-19	4.8664e-20	1.3265e-20	3.4627e-21	8.6349e-22	2.0541e-22	4.6565e-23	1.005e-23	2.0636e-24	4.0279e-25	7.4687e-26	1.3147e-26	2.1957e-27	3.4771e-28	5.2178e-29	7.4161e-30	9.9783e-31	1.2704e-31	1.5297e-32	1.7416e-33	1.8739e-34	1.9051e-35	1.8295e-36	1.6592e-37	1.4207e-38	1.1485e-39	8.765e-41	6.3142e-42	4.2939e-43	2.7567e-44	1.6709e-45	9.5643e-47	5.1708e-48
1.3685e-31	5.0094e-31	1.7794e-30	6.1343e-30	2.0527e-29	6.6682e-29	2.1033e-28	6.4433e-28	1.9173e-27	5.543e-27	1.5573e-26	4.2526e-26	1.129e-25	2.9151e-25	7.3209e-25	1.7889e-24	4.2542e-24	9.8485e-24	2.2201e-23	4.8746e-23	1.0428e-22	2.1739e-22	4.4179e-22	8.7548e-22	1.6921e-21	3.191e-21	5.8723e-21	1.0549e-20	1.8505e-20	3.1703e-20	5.3064e-20	8.6791e-20	1.3875e-19	2.1688e-19	3.315e-19	4.9564e-19	7.2501e-19	1.0378e-18	1.454e-18	1.9944e-18	2.6784e-18	3.5228e-18	4.5383e-18	5.7276e-18	7.0825e-18	8.582e-18	1.0191e-17	1.1862e-17	1.3535e-17	1.5139e-17	1.6601e-17	1.7849e-17	1.8817e-17	1.9451e-17	1.9716e-17	1.9596e-17	1.9099e-17	1.8252e-17	1.7103e-17	1.5714e-17	1.4154e-17	1.2499e-17	1.082e-17	9.1812e-18	7.6352e-18	6.2224e-18	4.9687e-18	3.8871e-18	2.9788e-18	2.2357e-18	1.6431e-18	1.1822e-18	8.3266e-19	5.7394e-19	3.8708e-19	2.5537e-19	1.6477e-19	1.0395e-19	6.4111e-20	3.8641e-20	2.2755e-20	1.3089e-20	7.3525e-21	4.0321e-21	2.1581e-21	1.1272e-21	5.7462e-22	2.8729e-22	1.472e-22	1.0364e-22	1.861e-22	6.2049e-22	2.2666e-21	8.0698e-21	2.7606e-20	9.0634e-20	2.8574e-19	8.6565e-19	2.5224e-18	7.0781e-18	1.9166e-17	5.0275e-17	1.2881e-16	3.2764e-16	8.519e-16	2.3576e-15	7.1795e-15	2.4034e-14	8.5276e-14	3.0652e-13	1.0792e-12	3.6512e-12	1.1757e-11	3.5897e-11	1.038e-10	2.8441e-10	7.3929e-10	1.8263e-09	4.2968e-09	9.6511e-09	2.0753e-08	4.2857e-08	8.531e-08	1.6435e-07	3.0776e-07	5.6281e-07	1.0095e-06	1.7828e-06	3.1086e-06	5.3593e-06	9.1368e-06	1.5389e-05	2.5568e-05	4.1828e-05	6.7274e-05	0.00010627	0.00016477	0.00025083	0.00037514	0.00055184	0.00079965	0.0011434	0.0016163	0.0022626	0.0031415	0.0043317	0.0059369	0.0080927	0.010973	0.014799	0.019843	0.026442	0.034997	0.045981	0.059942	0.077505	0.099366	0.12629	0.15911	0.1987	0.24595	0.30176	0.36701	0.44248	0.52886	0.62666	0.73623	0.85764	0.99071	1.135	1.2897	1.4538	1.6261	1.8049	1.9885	2.1751	2.3626	2.5493	2.733	2.9119	3.0843	3.2486	3.4034	3.5475	3.6799	3.7999	3.9067	3.9999	4.0792	4.1443	4.195	4.2312	4.2529	4.2599	4.2521	4.2295	4.192	4.1396	4.0723	3.9901	3.8933	3.7823	3.6574	3.5195	3.3694	3.2083	3.0376	2.8589	2.674	2.4848	2.2934	2.102	1.9127	1.7274	1.5481	1.3766	1.2142	1.0622	0.92152	0.79269	0.67603	0.57155	0.47901	0.39793	0.32766	0.26743	0.21635	0.1735	0.13792	0.1087	0.08494	0.065825	0.050598	0.038589	0.029206	0.021941	0.016365	0.012119	0.0089093	0.006501	0.0047062	0.0033778	0.002402	0.0016908	0.0011773	0.00081011	0.00055053	0.00036923	0.00024424	0.00015924	0.00010226	6.4626e-05	4.0156e-05	2.4504e-05	1.4665e-05	8.5963e-06	4.9274e-06	2.7577e-06	1.5045e-06	7.9892e-07	4.1228e-07	2.0643e-07	1.0011e-07	4.6932e-08	2.1224e-08	9.2357e-09	3.8568e-09	1.5411e-09	5.8748e-10	2.1303e-10	7.3292e-11	2.3871e-11	7.3515e-12	2.1412e-12	5.916e-13	1.5623e-13	4.0038e-14	1.0215e-14	2.6853e-15	7.5017e-16	2.2469e-16	7.0839e-17	2.2795e-17	7.287e-18	2.2735e-18	6.8536e-19	1.9856e-19	5.5121e-20	1.4636e-20	3.7124e-21	8.9864e-22	2.0742e-22	4.5612e-23	9.5496e-24	1.9022e-24	3.6024e-25	6.4825e-26	1.1077e-26	1.7964e-27	2.7634e-28	4.0301e-29	5.5698e-30	7.2914e-31	9.0377e-32	1.0603e-32	1.1771e-33	1.236e-34	1.2275e-35	1.1527e-36	1.0234e-37	8.5889e-39	6.814e-40	5.1101e-41	3.6228e-42	2.4282e-43	1.5389e-44	9.2243e-46
8.8716e-30	3.0698e-29	1.0317e-28	3.3688e-28	1.0687e-27	3.2949e-27	9.8736e-27	2.8763e-26	8.1474e-26	2.2445e-25	6.0151e-25	1.5685e-24	3.9805e-24	9.8339e-24	2.3656e-23	5.5428e-23	1.2652e-22	2.8145e-22	6.1027e-22	1.2902e-21	2.6605e-21	5.3521e-21	1.0507e-20	2.0133e-20	3.7669e-20	6.8835e-20	1.2289e-19	2.1438e-19	3.6557e-19	6.0951e-19	9.9386e-19	1.5853e-18	2.4743e-18	3.7797e-18	5.6524e-18	8.2768e-18	1.187e-17	1.6677e-17	2.2957e-17	3.0969e-17	4.0952e-17	5.3088e-17	6.7482e-17	8.4121e-17	1.0285e-16	1.2336e-16	1.4515e-16	1.6759e-16	1.8987e-16	2.111e-16	2.3035e-16	2.467e-16	2.5934e-16	2.6761e-16	2.7105e-16	2.695e-16	2.6302e-16	2.5197e-16	2.3693e-16	2.1868e-16	1.9809e-16	1.7609e-16	1.5362e-16	1.315e-16	1.1044e-16	9.0985e-17	7.3527e-17	5.8274e-17	4.5289e-17	3.4509e-17	2.5775e-17	1.8869e-17	1.3535e-17	9.5117e-18	6.5473e-18	4.4133e-18	2.9125e-18	1.8814e-18	1.1893e-18	7.3548e-19	4.4488e-19	2.6313e-19	1.5214e-19	8.5974e-20	4.7468e-20	2.5601e-20	1.3492e-20	6.9776e-21	3.6735e-21	2.4839e-21	3.7947e-21	1.128e-20	3.8391e-20	1.2865e-19	4.1536e-19	1.2891e-18	3.8474e-18	1.1049e-17	3.056e-17	8.1489e-17	2.0982e-16	5.2309e-16	1.2695e-15	3.0309e-15	7.2552e-15	1.7939e-14	4.7391e-14	1.363e-13	4.2165e-13	1.3546e-12	4.358e-12	1.368e-11	4.1283e-11	1.1888e-10	3.2567e-10	8.4809e-10	2.1008e-09	4.9564e-09	1.1159e-08	2.4025e-08	4.9598e-08	9.8463e-08	1.886e-07	3.4986e-07	6.3103e-07	1.1113e-06	1.9189e-06	3.2603e-06	5.4668e-06	9.0637e-06	1.487e-05	2.4132e-05	3.8707e-05	6.1281e-05	9.5642e-05	0.00014701	0.00022241	0.00033123	0.0004858	0.00070237	0.0010024	0.0014142	0.0019757	0.0027374	0.0037667	0.005153	0.0070139	0.0095019	0.012812	0.017191	0.02294	0.030429	0.040096	0.052453	0.068091	0.087679	0.11196	0.14174	0.17789	0.22132	0.27296	0.33373	0.40449	0.48602	0.57896	0.68377	0.8007	0.92974	1.0706	1.2226	1.3849	1.5564	1.7355	1.9207	2.11	2.3015	2.4932	2.683	2.8691	3.0496	3.2227	3.387	3.5411	3.6841	3.8149	3.933	4.0379	4.1292	4.2067	4.2703	4.3198	4.3553	4.3767	4.384	4.3771	4.3558	4.3202	4.27	4.2053	4.1259	4.0321	3.9239	3.8018	3.6663	3.5181	3.3583	3.1882	3.0092	2.823	2.6315	2.4369	2.2412	2.0466	1.8552	1.669	1.4899	1.3195	1.1592	1.0099	0.87256	0.74749	0.63487	0.53457	0.44622	0.36923	0.30287	0.24629	0.19855	0.1587	0.12578	0.09887	0.077087	0.059632	0.045778	0.034885	0.026396	0.019836	0.014805	0.010976	0.0080799	0.0059048	0.0042814	0.003078	0.0021924	0.0015459	0.0010783	0.00074351	0.0005064	0.00034049	0.00022586	0.00014772	9.5183e-05	6.0374e-05	3.766e-05	2.3077e-05	1.3875e-05	8.1736e-06	4.7113e-06	2.653e-06	1.4573e-06	7.7954e-07	4.0537e-07	2.0452e-07	9.9909e-08	4.7144e-08	2.1434e-08	9.3638e-09	3.9199e-09	1.5682e-09	5.9805e-10	2.1697e-10	7.4798e-11	2.4507e-11	7.6505e-12	2.2904e-12	6.658e-13	1.918e-13	5.626e-14	1.7249e-14	5.5926e-15	1.8995e-15	6.6039e-16	2.2948e-16	7.8295e-17	2.594e-17	8.2918e-18	2.548e-18	7.5098e-19	2.1198e-19	5.7242e-20	1.4773e-20	3.6407e-21	8.5611e-22	1.9195e-22	4.1008e-23	8.3418e-24	1.6148e-24	2.9726e-25	5.2014e-26	8.6457e-27	1.3645e-27	2.0437e-28	2.9038e-29	3.9123e-30	4.9964e-31	6.0465e-32	6.9318e-33	7.5265e-34	7.7383e-35	7.5325e-36	6.9411e-37	6.0547e-38	4.9994e-39	3.9077e-40	2.8916e-41	2.026e-42	1.3442e-43
4.6901e-28	1.5358e-27	4.8896e-27	1.5138e-26	4.5583e-26	1.3352e-25	3.8051e-25	1.0552e-24	2.8485e-24	7.4855e-24	1.9156e-23	4.7744e-23	1.1594e-22	2.7434e-22	6.3276e-22	1.4229e-21	3.1207e-21	6.6765e-21	1.3938e-20	2.84e-20	5.6498e-20	1.0977e-19	2.0832e-19	3.8632e-19	7.0025e-19	1.241e-18	2.1507e-18	3.6462e-18	6.0487e-18	9.821e-18	1.5611e-17	2.43e-17	3.705e-17	5.5346e-17	8.102e-17	1.1626e-16	1.6355e-16	2.2563e-16	3.053e-16	4.0526e-16	5.2785e-16	6.7471e-16	8.4652e-16	1.0426e-15	1.2609e-15	1.4973e-15	1.7462e-15	2.0002e-15	2.2506e-15	2.4877e-15	2.7015e-15	2.8823e-15	3.0216e-15	3.1125e-15	3.1504e-15	3.1333e-15	3.0621e-15	2.9404e-15	2.7744e-15	2.5719e-15	2.3425e-15	2.096e-15	1.8423e-15	1.5905e-15	1.3486e-15	1.1229e-15	9.1806e-16	7.3688e-16	5.8058e-16	4.4894e-16	3.4065e-16	2.5359e-16	1.8518e-16	1.3261e-16	9.3117e-17	6.4095e-17	4.3239e-17	2.8581e-17	1.8506e-17	1.1736e-17	7.2864e-18	4.4284e-18	2.6337e-18	1.5324e-18	8.721e-19	4.8533e-19	2.6419e-19	1.4124e-19	7.6477e-20	5.0461e-20	6.6732e-20	1.7554e-19	5.5514e-19	1.7518e-18	5.345e-18	1.5704e-17	4.4431e-17	1.2113e-16	3.1845e-16	8.0811e-16	1.982e-15	4.7078e-15	1.087e-14	2.4567e-14	5.5032e-14	1.2473e-13	2.94e-13	7.3901e-13	1.9944e-12	5.6769e-12	1.6525e-11	4.7787e-11	1.3457e-10	3.6474e-10	9.4602e-10	2.3422e-09	5.5336e-09	1.2484e-08	2.6932e-08	5.5673e-08	1.1053e-07	2.1132e-07	3.9028e-07	6.9868e-07	1.2169e-06	2.0698e-06	3.4516e-06	5.6628e-06	9.1673e-06	1.4675e-05	2.3256e-05	3.6496e-05	5.6691e-05	8.7092e-05	0.00013219	0.00019809	0.0002929	0.00042733	0.00061539	0.00087548	0.0012318	0.0017164	0.0023721	0.0032557	0.0044432	0.0060349	0.0081622	0.010995	0.014749	0.019693	0.02616	0.034548	0.045329	0.059053	0.076349	0.097922	0.12455	0.1571	0.19645	0.24355	0.29935	0.36476	0.44065	0.52777	0.62671	0.73787	0.86139	0.99716	1.1448	1.3034	1.4722	1.6497	1.8344	2.0245	2.2181	2.4131	2.6075	2.7992	2.9864	3.1671	3.3398	3.503	3.6555	3.7965	3.925	4.0406	4.143	4.2319	4.3072	4.3688	4.4169	4.4514	4.4724	4.4798	4.4735	4.4536	4.4198	4.372	4.31	4.2338	4.1433	4.0385	3.9197	3.7874	3.642	3.4846	3.3162	3.1382	2.9521	2.76	2.5636	2.3653	2.1671	1.9712	1.7798	1.5947	1.4177	1.2504	1.0938	0.94898	0.81644	0.69648	0.58908	0.49399	0.41069	0.33851	0.27664	0.22416	0.18012	0.14354	0.11346	0.088982	0.069252	0.0535	0.041039	0.031267	0.023665	0.017797	0.013299	0.0098741	0.0072816	0.0053312	0.003873	0.0027898	0.0019912	0.0014071	0.00098372	0.00067997	0.0004644	0.00031319	0.00020844	0.0001368	8.8481e-05	5.6349e-05	3.5302e-05	2.1734e-05	1.3134e-05	7.7805e-06	4.5119e-06	2.5573e-06	1.4142e-06	7.6169e-07	3.9872e-07	2.024e-07	9.9399e-08	4.7105e-08	2.1485e-08	9.4079e-09	3.9456e-09	1.5819e-09	6.0559e-10	2.214e-10	7.7469e-11	2.6082e-11	8.5352e-12	2.759e-12	8.9992e-13	3.0262e-13	1.0622e-13	3.8789e-14	1.4506e-14	5.4466e-15	2.0192e-15	7.3059e-16	2.5612e-16	8.661e-17	2.8177e-17	8.8025e-18	2.6372e-18	7.5694e-19	2.0794e-19	5.4629e-20	1.3715e-20	3.2877e-21	7.5207e-22	1.6406e-22	3.4106e-23	6.7529e-24	1.2727e-24	2.2821e-25	3.891e-26	6.3055e-27	9.7074e-28	1.4192e-28	1.9696e-29	2.5941e-30	3.2412e-31	3.8411e-32	4.3166e-33	4.5992e-34	4.6455e-35	4.448e-36	4.0371e-37	3.4733e-38	2.8328e-39	2.1905e-40	1.6062e-41
2.0326e-26	6.306e-26	1.904e-25	5.5961e-25	1.6012e-24	4.461e-24	1.2104e-23	3.1992e-23	8.2383e-23	2.0674e-22	5.0573e-22	1.2061e-21	2.8053e-21	6.3645e-21	1.4089e-20	3.044e-20	6.4202e-20	1.3223e-19	2.6601e-19	5.2287e-19	1.0044e-18	1.8862e-18	3.4638e-18	6.2218e-18	1.0934e-17	1.8807e-17	3.1667e-17	5.2213e-17	8.4322e-17	1.3342e-16	2.0688e-16	3.1446e-16	4.6866e-16	6.8501e-16	9.8218e-16	1.3818e-15	1.9078e-15	2.5857e-15	3.4408e-15	4.4963e-15	5.7709e-15	7.2762e-15	9.0139e-15	1.0973e-14	1.3129e-14	1.544e-14	1.7851e-14	2.0291e-14	2.268e-14	2.4927e-14	2.6943e-14	2.8641e-14	2.9945e-14	3.0793e-14	3.1146e-14	3.0987e-14	3.0322e-14	2.9185e-14	2.7628e-14	2.5723e-14	2.3553e-14	2.1207e-14	1.8777e-14	1.6346e-14	1.3989e-14	1.1769e-14	9.7312e-15	7.9075e-15	6.3138e-15	4.9526e-15	3.816e-15	2.8876e-15	2.1454e-15	1.5649e-15	1.1203e-15	7.8699e-16	5.4238e-16	3.6663e-16	2.4302e-16	1.5792e-16	1.0057e-16	6.2763e-17	3.8367e-17	2.2969e-17	1.3463e-17	7.7245e-18	4.3398e-18	2.3964e-18	1.3353e-18	8.7044e-19	1.0168e-18	2.3545e-18	6.8938e-18	2.0489e-17	5.9146e-17	1.6474e-16	4.4248e-16	1.1468e-15	2.8699e-15	6.9409e-15	1.6241e-14	3.683e-14	8.1153e-14	1.7458e-13	3.698e-13	7.8211e-13	1.6857e-12	3.7895e-12	9.0274e-12	2.275e-11	5.9497e-11	1.5731e-10	4.1103e-10	1.045e-09	2.5618e-09	6.0274e-09	1.3585e-08	2.9329e-08	6.0703e-08	1.2064e-07	2.3067e-07	4.2544e-07	7.5898e-07	1.3139e-06	2.2145e-06	3.6471e-06	5.8903e-06	9.3604e-06	1.4678e-05	2.2764e-05	3.4967e-05	5.3234e-05	8.032e-05	0.00012005	0.00017763	0.00026001	0.00037639	0.00053879	0.00076289	0.0010693	0.0014849	0.0020457	0.0027994	0.0038093	0.00516	0.0069627	0.0093624	0.012545	0.016747	0.02226	0.029441	0.038717	0.05059	0.065642	0.084535	0.10801	0.13688	0.17202	0.21437	0.26488	0.32451	0.39417	0.47472	0.56685	0.67112	0.78783	0.91706	1.0586	1.2119	1.376	1.55	1.7322	1.9212	2.1149	2.3114	2.5086	2.7044	2.8969	3.0839	3.2639	3.4352	3.5966	3.7468	3.8851	4.0108	4.1235	4.223	4.3091	4.3819	4.4415	4.4879	4.5213	4.5416	4.549	4.5434	4.5246	4.4926	4.4471	4.3879	4.3149	4.2278	4.1267	4.0116	3.8829	3.741	3.5867	3.4209	3.245	3.0603	2.8687	2.6721	2.4726	2.2724	2.0736	1.8785	1.6889	1.5069	1.3339	1.1714	1.0203	0.88136	0.75501	0.64133	0.54017	0.45112	0.37356	0.30674	0.24978	0.20172	0.1616	0.12843	0.10129	0.079294	0.061632	0.047577	0.036487	0.027808	0.021064	0.015861	0.011871	0.0088303	0.0065251	0.0047876	0.0034858	0.0025167	0.0018006	0.0012756	0.00089424	0.00061994	0.00042474	0.00028743	0.00019199	0.0001265	8.216e-05	5.256e-05	3.309e-05	2.048e-05	1.2447e-05	7.418e-06	4.329e-06	2.4694e-06	1.3744e-06	7.4468e-07	3.9196e-07	1.9992e-07	9.8579e-08	4.6877e-08	2.1451e-08	9.4287e-09	3.9765e-09	1.6092e-09	6.259e-10	2.3503e-10	8.5899e-11	3.0942e-11	1.117e-11	4.1109e-12	1.5608e-12	6.1183e-13	2.4521e-13	9.8951e-14	3.9615e-14	1.5555e-14	5.9436e-15	2.1989e-15	7.8509e-16	2.6994e-16	8.9239e-17	2.8332e-17	8.6292e-18	2.5193e-18	7.0439e-19	1.8848e-19	4.8228e-20	1.1793e-20	2.7541e-21	6.1383e-22	1.305e-22	2.6447e-23	5.1068e-24	9.3904e-25	1.6436e-25	2.7369e-26	4.3344e-27	6.5257e-28	9.3372e-29	1.2693e-29	1.6389e-30	2.0096e-31	2.3396e-32	2.5859e-33	2.713e-34	2.7019e-35	2.5543e-36	2.2922e-37	1.9529e-38	1.5798e-39
7.2593e-25	2.1364e-24	6.1252e-24	1.711e-23	4.6574e-23	1.2356e-22	3.1958e-22	8.0592e-22	1.9821e-21	4.7553e-21	1.1131e-20	2.543e-20	5.6712e-20	1.2349e-19	2.6265e-19	5.4572e-19	1.108e-18	2.1991e-18	4.2674e-18	8.0988e-18	1.5037e-17	2.7319e-17	4.8585e-17	8.4599e-17	1.4427e-16	2.4103e-16	3.9461e-16	6.3324e-16	9.9631e-16	1.5373e-15	2.327e-15	3.4562e-15	5.0382e-15	7.2098e-15	1.0131e-14	1.3982e-14	1.8957e-14	2.5255e-14	3.3065e-14	4.2553e-14	5.3842e-14	6.6989e-14	8.1971e-14	9.8663e-14	1.1683e-13	1.3611e-13	1.5604e-13	1.7606e-13	1.955e-13	2.1369e-13	2.2993e-13	2.4355e-13	2.5397e-13	2.6074e-13	2.6356e-13	2.6229e-13	2.5699e-13	2.479e-13	2.3543e-13	2.2011e-13	2.0258e-13	1.8353e-13	1.6365e-13	1.4361e-13	1.2403e-13	1.0539e-13	8.8105e-14	7.2455e-14	5.8604e-14	4.6614e-14	3.6455e-14	2.8026e-14	2.1177e-14	1.5724e-14	1.1471e-14	8.2192e-15	5.7835e-15	3.9955e-15	2.7093e-15	1.8029e-15	1.177e-15	7.5362e-16	4.7316e-16	2.9123e-16	1.7567e-16	1.0383e-16	6.0157e-17	3.4285e-17	1.9662e-17	1.2782e-17	1.3471e-17	2.7409e-17	7.3972e-17	2.0698e-16	5.6591e-16	1.4963e-15	3.821e-15	9.4278e-15	2.2491e-14	5.1918e-14	1.1608e-13	2.5175e-13	5.3062e-13	1.0907e-12	2.1994e-12	4.3928e-12	8.8178e-12	1.8123e-11	3.8813e-11	8.7318e-11	2.0495e-10	4.9274e-10	1.1878e-09	2.8202e-09	6.5165e-09	1.4549e-08	3.1273e-08	6.4627e-08	1.2842e-07	2.4561e-07	4.529e-07	8.0695e-07	1.3928e-06	2.3356e-06	3.8171e-06	6.1001e-06	9.5648e-06	1.4761e-05	2.2486e-05	3.3887e-05	5.0606e-05	7.4957e-05	0.00011015	0.00016059	0.00023214	0.00033262	0.00047223	0.0006643	0.00092617	0.0012806	0.0017574	0.0023962	0.0032498	0.0043881	0.005904	0.0079192	0.010592	0.014123	0.018767	0.024837	0.032711	0.042842	0.055759	0.072068	0.092461	0.1177	0.14864	0.18617	0.23124	0.28482	0.34787	0.4213	0.50591	0.60239	0.7112	0.83261	0.96657	1.1128	1.2706	1.439	1.6169	1.8027	1.9945	2.1906	2.3888	2.587	2.7832	2.9753	3.1614	3.3398	3.5091	3.668	3.8154	3.9507	4.0733	4.1828	4.2793	4.3626	4.4328	4.4902	4.5349	4.567	4.5866	4.5939	4.5887	4.571	4.5406	4.4972	4.4407	4.3707	4.287	4.1896	4.0784	3.9536	3.8155	3.6648	3.5023	3.3292	3.1468	2.9569	2.7612	2.5619	2.361	2.1608	1.9634	1.771	1.5854	1.4082	1.2411	1.085	0.94083	0.80914	0.69012	0.58371	0.48959	0.40723	0.33592	0.27484	0.22304	0.17958	0.14347	0.11377	0.089564	0.070022	0.054383	0.041972	0.0322	0.024561	0.018629	0.014051	0.010537	0.007855	0.0058179	0.004279	0.0031233	0.0022609	0.001622	0.0011524	0.0008104	0.00056367	0.00038756	0.00026326	0.00017657	0.00011685	7.6256e-05	4.9035e-05	3.1042e-05	1.9326e-05	1.1819e-05	7.0892e-06	4.1637e-06	2.3901e-06	1.3381e-06	7.2899e-07	3.8561e-07	1.976e-07	9.789e-08	4.6801e-08	2.157e-08	9.5829e-09	4.1091e-09	1.7066e-09	6.9086e-10	2.7527e-10	1.0934e-10	4.3896e-11	1.7997e-11	7.5599e-12	3.2367e-12	1.3971e-12	6.0054e-13	2.5433e-13	1.0527e-13	4.2352e-14	1.6499e-14	6.2083e-15	2.2522e-15	7.8661e-16	2.642e-16	8.5255e-17	2.6407e-17	7.8449e-18	2.2336e-18	6.0901e-19	1.5892e-19	3.9663e-20	9.4614e-21	2.1559e-21	4.6901e-22	9.7354e-23	1.9272e-23	3.6368e-24	6.5389e-25	1.1197e-25	1.8256e-26	2.8327e-27	4.1821e-28	5.873e-29	7.8434e-30	9.9598e-31	1.2024e-31	1.3798e-32	1.5051e-33	1.5607e-34	1.5383e-35	1.4414e-36	1.2842e-37
2.1482e-23	6.0048e-23	1.6367e-22	4.3505e-22	1.128e-21	2.8532e-21	7.0423e-21	1.6964e-20	3.9894e-20	9.1604e-20	2.0543e-19	4.5004e-19	9.6339e-19	2.0157e-18	4.123e-18	8.247e-18	1.6136e-17	3.089e-17	5.7876e-17	1.0616e-16	1.9067e-16	3.3546e-16	5.7827e-16	9.7696e-16	1.6181e-15	2.628e-15	4.1865e-15	6.5437e-15	1.0038e-14	1.5116e-14	2.235e-14	3.2458e-14	4.6309e-14	6.4924e-14	8.9462e-14	1.2119e-13	1.6144e-13	2.115e-13	2.7258e-13	3.4565e-13	4.3133e-13	5.2978e-13	6.4056e-13	7.6255e-13	8.9391e-13	1.032e-12	1.1735e-12	1.3145e-12	1.4505e-12	1.577e-12	1.6894e-12	1.7833e-12	1.8549e-12	1.9013e-12	1.9206e-12	1.9119e-12	1.8756e-12	1.8132e-12	1.7273e-12	1.6215e-12	1.4998e-12	1.3669e-12	1.2272e-12	1.0854e-12	9.456e-13	8.1135e-13	6.8555e-13	5.7035e-13	4.6714e-13	3.7661e-13	2.9881e-13	2.3329e-13	1.7918e-13	1.3537e-13	1.0057e-13	7.3458e-14	5.2742e-14	3.7214e-14	2.5799e-14	1.7568e-14	1.1747e-14	7.7123e-15	4.9696e-15	3.1422e-15	1.949e-15	1.1858e-15	7.0785e-16	4.1603e-16	2.4555e-16	1.6031e-16	1.5561e-16	2.7877e-16	6.9019e-16	1.8165e-15	4.7076e-15	1.1832e-14	2.8768e-14	6.7674e-14	1.5412e-13	3.4007e-13	7.2765e-13	1.5116e-12	3.0536e-12	6.0146e-12	1.1599e-11	2.2051e-11	4.1756e-11	7.9871e-11	1.5674e-10	3.193e-10	6.767e-10	1.4782e-09	3.2745e-09	7.2299e-09	1.5694e-08	3.3179e-08	6.7937e-08	1.3435e-07	2.5637e-07	4.7221e-07	8.4055e-07	1.4485e-06	2.4223e-06	3.9408e-06	6.2558e-06	9.7196e-06	1.4827e-05	2.2273e-05	3.3041e-05	4.8512e-05	7.0619e-05	0.00010204	0.00014642	0.00020868	0.00029537	0.00041507	0.00057897	0.00080167	0.0011021	0.0015052	0.0020437	0.0027608	0.0037143	0.0049805	0.0066602	0.0088849	0.011824	0.015695	0.020765	0.027366	0.035896	0.046828	0.060711	0.078176	0.099933	0.12677	0.15955	0.19919	0.24665	0.3029	0.36889	0.4455	0.53353	0.63359	0.7461	0.87124	1.0089	1.1587	1.3199	1.4914	1.6719	1.8599	2.0535	2.2507	2.4495	2.6477	2.8433	3.0342	3.2186	3.395	3.5617	3.7177	3.8621	3.9942	4.1136	4.22	4.3134	4.3939	4.4617	4.5169	4.5598	4.5907	4.6095	4.6165	4.6117	4.5948	4.5658	4.5244	4.4702	4.4031	4.3226	4.2287	4.1213	4.0003	3.8662	3.7193	3.5605	3.3908	3.2114	3.024	2.8302	2.6322	2.4319	2.2316	2.0335	1.8395	1.6517	1.4718	1.3014	1.1417	0.99356	0.85767	0.73434	0.62359	0.5252	0.43871	0.36349	0.29874	0.24359	0.19708	0.15825	0.12614	0.099844	0.0785	0.061326	0.04762	0.036765	0.02823	0.021561	0.016382	0.012382	0.0093069	0.0069549	0.0051645	0.0038087	0.0027878	0.0020239	0.0014564	0.0010381	0.0007325	0.00051137	0.00035299	0.00024081	0.00016226	0.00010793	7.0822e-05	4.5812e-05	2.9185e-05	1.8291e-05	1.1261e-05	6.8005e-06	4.0206e-06	2.3225e-06	1.3082e-06	7.1692e-07	3.8154e-07	1.9686e-07	9.8368e-08	4.7585e-08	2.2307e-08	1.0159e-08	4.5174e-09	1.9756e-09	8.5807e-10	3.7411e-10	1.6521e-10	7.4212e-11	3.3846e-11	1.5561e-11	7.1435e-12	3.2436e-12	1.4456e-12	6.2863e-13	2.6564e-13	1.0876e-13	4.3055e-14	1.6452e-14	6.0606e-15	2.15e-15	7.3379e-16	2.4074e-16	7.5859e-17	2.2942e-17	6.6543e-18	1.8498e-18	4.9252e-19	1.2552e-19	3.0603e-20	7.1333e-21	1.5889e-21	3.3801e-22	6.8643e-23	1.3302e-23	2.4585e-24	4.3326e-25	7.2772e-26	1.1647e-26	1.7755e-27	2.5779e-28	3.5639e-29	4.6906e-30	5.8769e-31	7.009e-32	7.9567e-33	8.598e-34	8.8446e-35	8.6623e-36
5.296e-22	1.4078e-21	3.6526e-21	9.2507e-21	2.2874e-20	5.5229e-20	1.3025e-19	3.0008e-19	6.7553e-19	1.4863e-18	3.1969e-18	6.7237e-18	1.3831e-17	2.7835e-17	5.4816e-17	1.0567e-16	1.9944e-16	3.6864e-16	6.6754e-16	1.1845e-15	2.0601e-15	3.5131e-15	5.8752e-15	9.639e-15	1.5518e-14	2.4521e-14	3.8043e-14	5.7963e-14	8.6754e-14	1.2758e-13	1.8441e-13	2.6205e-13	3.6616e-13	5.0323e-13	6.804e-13	9.0524e-13	1.1854e-12	1.5281e-12	1.9395e-12	2.4244e-12	2.9851e-12	3.6209e-12	4.3277e-12	5.0973e-12	5.9175e-12	6.7716e-12	7.6394e-12	8.4975e-12	9.3201e-12	1.0081e-11	1.0753e-11	1.1312e-11	1.1738e-11	1.2014e-11	1.2128e-11	1.2076e-11	1.1861e-11	1.149e-11	1.0979e-11	1.0347e-11	9.617e-12	8.8148e-12	7.9671e-12	7.1e-12	6.2381e-12	5.403e-12	4.6125e-12	3.8807e-12	3.2173e-12	2.6279e-12	2.1144e-12	1.6756e-12	1.3075e-12	1.0045e-12	7.5957e-13	5.6524e-13	4.1385e-13	2.9805e-13	2.1109e-13	1.4699e-13	1.0061e-13	6.7673e-14	4.4718e-14	2.9023e-14	1.8496e-14	1.1573e-14	7.1125e-15	4.3073e-15	2.6156e-15	1.7238e-15	1.5705e-15	2.4927e-15	5.6363e-15	1.393e-14	3.4238e-14	8.1899e-14	1.8987e-13	4.2648e-13	9.286e-13	1.9614e-12	4.022e-12	8.0157e-12	1.5547e-11	2.9409e-11	5.4422e-11	9.9014e-11	1.7843e-10	3.2183e-10	5.8827e-10	1.1027e-09	2.1339e-09	4.2554e-09	8.6597e-09	1.7734e-08	3.6055e-08	7.2002e-08	1.4021e-07	2.6513e-07	4.8576e-07	8.6192e-07	1.482e-06	2.4725e-06	4.0103e-06	6.3382e-06	9.7874e-06	1.4808e-05	2.2017e-05	3.226e-05	4.6703e-05	6.6957e-05	9.5232e-05	0.00013454	0.00018894	0.00026385	0.00036639	0.0005059	0.00069451	0.00094801	0.001287	0.0017383	0.0023376	0.0031318	0.0041831	0.0055739	0.0074123	0.0098386	0.013033	0.017224	0.022693	0.029786	0.038917	0.050574	0.065322	0.08381	0.10676	0.13498	0.16934	0.21077	0.26023	0.31867	0.38705	0.46621	0.55692	0.65973	0.77502	0.9029	1.0432	1.1954	1.3588	1.5321	1.7141	1.9031	2.0973	2.2946	2.4929	2.6902	2.8844	3.0735	3.2557	3.4295	3.5935	3.7465	3.8878	4.0168	4.133	4.2364	4.3269	4.4048	4.4702	4.5234	4.5647	4.5943	4.6124	4.6191	4.6144	4.5982	4.5703	4.5305	4.4784	4.4138	4.3362	4.2455	4.1416	4.0244	3.8941	3.7512	3.5962	3.4302	3.2543	3.07	2.879	2.6832	2.4846	2.2853	2.0876	1.8934	1.7049	1.5237	1.3514	1.1893	1.0384	0.89954	0.77298	0.65888	0.5571	0.46725	0.38877	0.32092	0.26285	0.21367	0.1724	0.13812	0.1099	0.086879	0.068256	0.053313	0.041414	0.032003	0.024607	0.018828	0.014336	0.010861	0.0081849	0.006133	0.0045671	0.003378	0.0024801	0.0018062	0.0013041	0.00093288	0.00066078	0.00046321	0.0003212	0.00022021	0.00014919	9.9825e-05	6.5928e-05	4.294e-05	2.7553e-05	1.7395e-05	1.079e-05	6.5637e-06	3.9087e-06	2.2743e-06	1.2906e-06	7.1319e-07	3.8331e-07	2.0028e-07	1.0178e-07	5.0406e-08	2.4413e-08	1.1627e-08	5.4847e-09	2.584e-09	1.2249e-09	5.8698e-10	2.8439e-10	1.3874e-10	6.7691e-11	3.2771e-11	1.5632e-11	7.3037e-12	3.3281e-12	1.4742e-12	6.3319e-13	2.6325e-13	1.0578e-13	4.103e-14	1.5348e-14	5.5309e-15	1.9187e-15	6.4018e-16	2.053e-16	6.3232e-17	1.8692e-17	5.3e-18	1.4405e-18	3.7509e-19	9.3512e-20	2.231e-20	5.0908e-21	1.1106e-21	2.3151e-22	4.6098e-23	8.7644e-24	1.5905e-24	2.7542e-25	4.5497e-26	7.1678e-27	1.0768e-27	1.5422e-28	2.1056e-29	2.7403e-30	3.3994e-31	4.0196e-32	4.5308e-33	4.8688e-34
1.0937e-20	2.7686e-20	6.8464e-20	1.6541e-19	3.9055e-19	9.0129e-19	2.0334e-18	4.4858e-18	9.6786e-18	2.0429e-17	4.2193e-17	8.5291e-17	1.6879e-16	3.2709e-16	6.2086e-16	1.1546e-15	2.1043e-15	3.7596e-15	6.5864e-15	1.1317e-14	1.9078e-14	3.1563e-14	5.1258e-14	8.1737e-14	1.2802e-13	1.9698e-13	2.9787e-13	4.4275e-13	6.4706e-13	9.3006e-13	1.3151e-12	1.8297e-12	2.5056e-12	3.3778e-12	4.484e-12	5.8625e-12	7.5507e-12	9.5824e-12	1.1984e-11	1.4774e-11	1.7957e-11	2.152e-11	2.5434e-11	2.9651e-11	3.4099e-11	3.8689e-11	4.3315e-11	4.7855e-11	5.218e-11	5.6157e-11	5.9655e-11	6.2556e-11	6.4757e-11	6.6178e-11	6.6767e-11	6.6501e-11	6.5391e-11	6.3477e-11	6.0831e-11	5.7545e-11	5.3735e-11	4.9526e-11	4.5052e-11	4.0444e-11	3.5827e-11	3.1313e-11	2.7e-11	2.2964e-11	1.9263e-11	1.5934e-11	1.2995e-11	1.0448e-11	8.2785e-12	6.4638e-12	4.9722e-12	3.7674e-12	2.811e-12	2.065e-12	1.4932e-12	1.0625e-12	7.4386e-13	5.1222e-13	3.4683e-13	2.3087e-13	1.5105e-13	9.7116e-14	6.1391e-14	3.8275e-14	2.3904e-14	1.5963e-14	1.3876e-14	1.9708e-14	4.0551e-14	9.3903e-14	2.1894e-13	4.9899e-13	1.1046e-12	2.3724e-12	4.946e-12	1.0015e-11	1.9711e-11	3.7744e-11	7.0404e-11	1.2814e-10	2.2813e-10	3.9875e-10	6.8806e-10	1.1811e-09	2.0367e-09	3.5643e-09	6.3818e-09	1.1723e-08	2.2003e-08	4.1805e-08	7.9487e-08	1.4965e-07	2.7671e-07	4.9973e-07	8.7862e-07	1.5018e-06	2.495e-06	4.0325e-06	6.3494e-06	9.7595e-06	1.4679e-05	2.1658e-05	3.1435e-05	4.5001e-05	6.3699e-05	8.935e-05	0.00012442	0.00017222	0.00023719	0.00032516	0.00044382	0.00060318	0.00081625	0.0011	0.0014764	0.0019746	0.0026326	0.0035009	0.0046459	0.0061553	0.0081436	0.010759	0.01419	0.018674	0.024504	0.032036	0.041696	0.053982	0.069472	0.088823	0.11277	0.14212	0.17776	0.2206	0.27161	0.33174	0.4019	0.48292	0.57552	0.68022	0.79733	0.92691	1.0687	1.2222	1.3866	1.5606	1.7429	1.9318	2.1254	2.3218	2.5188	2.7144	2.9065	3.0933	3.2729	3.4439	3.6049	3.755	3.8932	4.0192	4.1325	4.2331	4.321	4.3965	4.4598	4.5112	4.5511	4.5795	4.5969	4.6032	4.5986	4.5828	4.5558	4.5173	4.4669	4.4043	4.3293	4.2415	4.1407	4.0269	3.9003	3.7611	3.6101	3.4479	3.2758	3.0951	2.9074	2.7146	2.5186	2.3214	2.1253	1.9322	1.7441	1.5628	1.39	1.2269	1.0746	0.93384	0.80518	0.68877	0.58453	0.49216	0.41114	0.34081	0.28037	0.22894	0.1856	0.14942	0.1195	0.094963	0.075017	0.058929	0.046047	0.035803	0.027706	0.021342	0.016366	0.012492	0.0094898	0.0071718	0.0053897	0.0040259	0.0029871	0.0022003	0.0016081	0.0011654	0.00083696	0.00059543	0.0004194	0.00029237	0.00020162	0.00013748	9.2643e-05	6.1648e-05	4.0473e-05	2.6184e-05	1.667e-05	1.0427e-05	6.3974e-06	3.8435e-06	2.2578e-06	1.2953e-06	7.2521e-07	3.9633e-07	2.1166e-07	1.1074e-07	5.6989e-08	2.9e-08	1.4684e-08	7.4432e-09	3.7937e-09	1.9471e-09	1.0046e-09	5.1862e-10	2.6631e-10	1.3519e-10	6.7467e-11	3.2955e-11	1.57e-11	7.2755e-12	3.2726e-12	1.4265e-12	6.0174e-13	2.4536e-13	9.661e-14	3.6699e-14	1.3438e-14	4.7394e-15	1.6088e-15	5.2524e-16	1.6482e-16	4.9677e-17	1.4373e-17	3.9897e-18	1.0619e-18	2.7084e-19	6.6168e-20	1.5476e-20	3.4641e-21	7.417e-22	1.5185e-22	2.9716e-23	5.5571e-24	9.9275e-25	1.6938e-25	2.7597e-26	4.2928e-27	6.3744e-28	9.0353e-29	1.2224e-29	1.5786e-30	1.946e-31	2.29e-32
1.9027e-19	4.5925e-19	1.0838e-18	2.5014e-18	5.6466e-18	1.247e-17	2.6948e-17	5.6995e-17	1.1801e-16	2.3924e-16	4.7502e-16	9.2397e-16	1.7611e-15	3.29e-15	6.0256e-15	1.0823e-14	1.9067e-14	3.296e-14	5.592e-14	9.3138e-14	1.5233e-13	2.4473e-13	3.863e-13	5.9927e-13	9.1393e-13	1.3706e-12	2.0216e-12	2.9339e-12	4.1901e-12	5.8907e-12	8.1541e-12	1.1116e-11	1.4928e-11	1.9754e-11	2.5762e-11	3.3118e-11	4.1979e-11	5.2474e-11	6.4699e-11	7.87e-11	9.4461e-11	1.1189e-10	1.3082e-10	1.51e-10	1.7208e-10	1.9365e-10	2.1521e-10	2.3622e-10	2.5611e-10	2.743e-10	2.9023e-10	3.034e-10	3.1336e-10	3.1978e-10	3.2243e-10	3.2123e-10	3.1622e-10	3.0757e-10	2.9557e-10	2.8063e-10	2.6323e-10	2.4392e-10	2.2326e-10	2.0185e-10	1.8022e-10	1.589e-10	1.3834e-10	1.189e-10	1.0088e-10	8.4469e-11	6.9795e-11	5.6899e-11	4.5757e-11	3.6291e-11	2.8382e-11	2.1882e-11	1.6629e-11	1.2452e-11	9.1863e-12	6.6751e-12	4.7762e-12	3.3644e-12	2.3325e-12	1.5911e-12	1.0678e-12	7.0485e-13	4.579e-13	2.9366e-13	1.8852e-13	1.2791e-13	1.0756e-13	1.3842e-13	2.5873e-13	5.599e-13	1.2379e-12	2.6907e-12	5.6946e-12	1.1713e-11	2.3415e-11	4.5519e-11	8.6111e-11	1.5867e-10	2.8507e-10	5.0009e-10	8.5837e-10	1.4457e-09	2.399e-09	3.9455e-09	6.4788e-09	1.0712e-08	1.797e-08	3.0738e-08	5.3604e-08	9.4828e-08	1.6876e-07	2.9937e-07	5.2504e-07	9.0474e-07	1.5255e-06	2.5111e-06	4.0315e-06	6.3145e-06	9.6586e-06	1.4451e-05	2.1191e-05	3.0528e-05	4.3314e-05	6.0673e-05	8.4107e-05	0.00011563	0.00015792	0.00021456	0.00029031	0.00039139	0.00052597	0.00070469	0.00094139	0.0012541	0.0016663	0.0022088	0.0029223	0.0038601	0.0050925	0.0067117	0.0088373	0.011624	0.015266	0.020008	0.026151	0.034058	0.04416	0.056963	0.07305	0.093081	0.11779	0.148	0.18458	0.22843	0.28052	0.34177	0.41307	0.49522	0.58889	0.69456	0.81251	0.94273	1.085	1.2386	1.4028	1.5763	1.7578	1.9455	2.1376	2.3321	2.527	2.7202	2.9097	3.0937	3.2705	3.4385	3.5965	3.7436	3.879	4.0022	4.1129	4.211	4.2967	4.3702	4.4317	4.4816	4.5201	4.5476	4.5643	4.5702	4.5655	4.55	4.5236	4.486	4.437	4.3761	4.3031	4.2177	4.1197	4.009	3.8857	3.7502	3.6029	3.4446	3.2764	3.0997	2.9158	2.7266	2.5339	2.3397	2.1462	1.9552	1.7688	1.5887	1.4166	1.2537	1.1012	0.95988	0.83026	0.71259	0.60686	0.51284	0.43007	0.35794	0.29569	0.24251	0.1975	0.15975	0.12839	0.10256	0.081449	0.064335	0.050561	0.039547	0.030794	0.023875	0.018433	0.014171	0.010847	0.0082642	0.0062647	0.004723	0.0035395	0.0026352	0.0019481	0.0014293	0.0010401	0.00075044	0.0005366	0.00038013	0.00026668	0.00018521	0.00012727	8.6476e-05	5.8054e-05	3.8465e-05	2.5121e-05	1.6149e-05	1.0203e-05	6.3272e-06	3.8462e-06	2.2901e-06	1.3354e-06	7.6298e-07	4.2786e-07	2.3613e-07	1.2874e-07	6.967e-08	3.7599e-08	2.0317e-08	1.1015e-08	5.9905e-09	3.2595e-09	1.7668e-09	9.4937e-10	5.032e-10	2.6195e-10	1.3344e-10	6.6333e-11	3.21e-11	1.5095e-11	6.8868e-12	3.0446e-12	1.3028e-12	5.3904e-13	2.1547e-13	8.3134e-14	3.0938e-14	1.1097e-14	3.8333e-15	1.2745e-15	4.0761e-16	1.2531e-16	3.7012e-17	1.0497e-17	2.8569e-18	7.4585e-19	1.8669e-19	4.4781e-20	1.029e-20	2.2641e-21	4.7687e-22	9.6114e-23	1.8533e-23	3.4178e-24	6.0274e-25	1.0163e-25	1.638e-26	2.5237e-27	3.7165e-28	5.2313e-29	7.0384e-30	9.0525e-31
2.804e-18	6.4619e-18	1.4573e-17	3.217e-17	6.9523e-17	1.4712e-16	3.0491e-16	6.1904e-16	1.2314e-15	2.4008e-15	4.5882e-15	8.5978e-15	1.5802e-14	2.849e-14	5.0405e-14	8.753e-14	1.4923e-13	2.4986e-13	4.1095e-13	6.6414e-13	1.0549e-12	1.6473e-12	2.5298e-12	3.8214e-12	5.6798e-12	8.3085e-12	1.1965e-11	1.6967e-11	2.3699e-11	3.2612e-11	4.4225e-11	5.9115e-11	7.7909e-11	1.0126e-10	1.2981e-10	1.6419e-10	2.0492e-10	2.5245e-10	3.0702e-10	3.6867e-10	4.3718e-10	5.1207e-10	5.9251e-10	6.7737e-10	7.652e-10	8.5429e-10	9.4268e-10	1.0282e-09	1.1087e-09	1.182e-09	1.2458e-09	1.2984e-09	1.3381e-09	1.3636e-09	1.3742e-09	1.3694e-09	1.3495e-09	1.3151e-09	1.2672e-09	1.2074e-09	1.1375e-09	1.0594e-09	9.7555e-10	8.8798e-10	7.9892e-10	7.1039e-10	6.2421e-10	5.4195e-10	4.6485e-10	3.9384e-10	3.2955e-10	2.7229e-10	2.2212e-10	1.7885e-10	1.4212e-10	1.1143e-10	8.6184e-11	6.5742e-11	4.9448e-11	3.6664e-11	2.6793e-11	1.9291e-11	1.3683e-11	9.5575e-12	6.5733e-12	4.451e-12	2.969e-12	1.9569e-12	1.2905e-12	8.9126e-13	7.3327e-13	8.6706e-13	1.4732e-12	2.9714e-12	6.2253e-12	1.2912e-11	2.616e-11	5.1601e-11	9.9058e-11	1.8515e-10	3.3716e-10	5.9867e-10	1.0375e-09	1.7572e-09	2.9133e-09	4.7389e-09	7.588e-09	1.2014e-08	1.8915e-08	2.9814e-08	4.7368e-08	7.6258e-08	1.2467e-07	2.0662e-07	3.4533e-07	5.7794e-07	9.6155e-07	1.5805e-06	2.5548e-06	4.0489e-06	6.2821e-06	9.5382e-06	1.418e-05	2.0664e-05	2.957e-05	4.1636e-05	5.7813e-05	7.9344e-05	0.00010787	0.00014555	0.00019527	0.00026084	0.00034727	0.00046114	0.00061104	0.00080818	0.0010671	0.0014069	0.0018523	0.0024359	0.0032003	0.0042015	0.005513	0.0072303	0.0094772	0.012412	0.016234	0.021193	0.027591	0.035796	0.046242	0.059435	0.075957	0.096468	0.1217	0.15246	0.18961	0.23405	0.28671	0.3485	0.42027	0.50278	0.59669	0.70241	0.8202	0.95001	1.0915	1.2442	1.4071	1.579	1.7585	1.944	2.1337	2.3255	2.5175	2.7077	2.8941	3.075	3.2486	3.4136	3.5687	3.7129	3.8456	3.9663	4.0747	4.1708	4.2546	4.3264	4.3864	4.4351	4.4726	4.4992	4.5153	4.5208	4.5159	4.5006	4.4745	4.4376	4.3895	4.3299	4.2586	4.1751	4.0795	3.9715	3.8512	3.719	3.5753	3.421	3.2568	3.0842	2.9045	2.7194	2.5307	2.3403	2.1503	1.9625	1.7789	1.6012	1.4309	1.2695	1.1179	0.97715	0.84768	0.72981	0.62359	0.52881	0.44509	0.37186	0.30844	0.25403	0.2078	0.16886	0.13637	0.10947	0.087392	0.069402	0.054848	0.043149	0.033802	0.026372	0.020495	0.015865	0.012232	0.0093908	0.0071772	0.0054586	0.0041293	0.0031055	0.0023208	0.0017226	0.0012693	0.0009282	0.00067334	0.00048442	0.00034552	0.00024426	0.00017107	0.00011863	8.1395e-05	5.5203e-05	3.6966e-05	2.441e-05	1.5874e-05	1.0155e-05	6.3843e-06	3.9427e-06	2.3921e-06	1.4271e-06	8.3861e-07	4.8671e-07	2.7992e-07	1.6012e-07	9.1402e-08	5.2189e-08	2.9827e-08	1.7044e-08	9.7105e-09	5.4956e-09	3.0767e-09	1.6972e-09	9.1921e-10	4.8733e-10	2.5228e-10	1.2727e-10	6.2457e-11	2.9775e-11	1.3772e-11	6.1738e-12	2.6797e-12	1.1251e-12	4.5663e-13	1.7899e-13	6.7711e-14	2.4704e-14	8.6873e-15	2.9425e-15	9.5943e-16	3.0096e-16	9.0778e-17	2.6314e-17	7.3271e-18	1.9588e-18	5.0255e-19	1.2369e-19	2.9191e-20	6.6042e-21	1.4318e-21	2.974e-22	5.9163e-23	1.1271e-23	2.0557e-24	3.5893e-25	5.9988e-26	9.5962e-27	1.4693e-27	2.1533e-28	3.0206e-29
3.5201e-17	7.7558e-17	1.6738e-16	3.5388e-16	7.3312e-16	1.4885e-15	2.9624e-15	5.7806e-15	1.1062e-14	2.0765e-14	3.8243e-14	6.9122e-14	1.2264e-13	2.1365e-13	3.6554e-13	6.1441e-13	1.0148e-12	1.6475e-12	2.6295e-12	4.1276e-12	6.3735e-12	9.6838e-12	1.4481e-11	2.1321e-11	3.0911e-11	4.4146e-11	6.2118e-11	8.6145e-11	1.1777e-10	1.5875e-10	2.1106e-10	2.7683e-10	3.5828e-10	4.5766e-10	5.7712e-10	7.1859e-10	8.8367e-10	1.0734e-09	1.2883e-09	1.5279e-09	1.7909e-09	2.0751e-09	2.3771e-09	2.6926e-09	3.0162e-09	3.3418e-09	3.6624e-09	3.9707e-09	4.2591e-09	4.5202e-09	4.7469e-09	4.933e-09	5.073e-09	5.1629e-09	5.2001e-09	5.1833e-09	5.1132e-09	4.9917e-09	4.8225e-09	4.6105e-09	4.3616e-09	4.0827e-09	3.7811e-09	3.4642e-09	3.1397e-09	2.8146e-09	2.4953e-09	2.1876e-09	1.8962e-09	1.6249e-09	1.3762e-09	1.1519e-09	9.5263e-10	7.7829e-10	6.2804e-10	5.0045e-10	3.9371e-10	3.0572e-10	2.3428e-10	1.7713e-10	1.3209e-10	9.7143e-11	7.0432e-11	5.0334e-11	3.5448e-11	2.4601e-11	1.6835e-11	1.1393e-11	7.7134e-12	5.4288e-12	4.4095e-12	4.8602e-12	7.5318e-12	1.4124e-11	2.8007e-11	5.5454e-11	1.0766e-10	2.0392e-10	3.7647e-10	6.7755e-10	1.1894e-09	2.0382e-09	3.4124e-09	5.5881e-09	8.9636e-09	1.4111e-08	2.1858e-08	3.3435e-08	5.073e-08	7.6758e-08	1.1648e-07	1.7816e-07	2.7552e-07	4.3097e-07	6.8002e-07	1.0772e-06	1.7029e-06	2.6719e-06	4.1416e-06	6.3207e-06	9.4788e-06	1.3955e-05	2.0172e-05	2.8651e-05	4.004e-05	5.5151e-05	7.502e-05	0.00010099	0.0001348	0.00017876	0.00023591	0.00031022	0.00040696	0.00053298	0.00069726	0.00091148	0.0011909	0.0015553	0.0020308	0.0026512	0.003461	0.004518	0.0058981	0.0076993	0.010048	0.013104	0.01707	0.022196	0.028786	0.037205	0.047885	0.06133	0.078116	0.098894	0.12439	0.15538	0.19273	0.23731	0.29003	0.35175	0.4233	0.50543	0.59871	0.70358	0.82021	0.94857	1.0883	1.2389	1.3994	1.5686	1.7451	1.9274	2.1137	2.302	2.4904	2.677	2.8599	3.0373	3.2076	3.3694	3.5215	3.6631	3.7933	3.9118	4.0182	4.1125	4.1948	4.2653	4.3242	4.3719	4.4086	4.4346	4.4501	4.4553	4.4502	4.4348	4.4089	4.3724	4.325	4.2663	4.1962	4.1143	4.0206	3.9149	3.7974	3.6683	3.5281	3.3776	3.2175	3.0492	2.874	2.6935	2.5094	2.3235	2.1378	1.9541	1.7743	1.6	1.4327	1.2739	1.1245	0.98535	0.85712	0.74009	0.63434	0.5397	0.45585	0.38226	0.3183	0.26323	0.21624	0.17652	0.14322	0.11553	0.092699	0.074004	0.058805	0.046524	0.036659	0.028776	0.022505	0.017536	0.013615	0.010529	0.0081103	0.0062195	0.0047468	0.003604	0.002721	0.0020419	0.0015226	0.0011277	0.00082935	0.00060556	0.00043887	0.00031561	0.00022516	0.00015926	0.00011161	7.7439e-05	5.3137e-05	3.6019e-05	2.4092e-05	1.5886e-05	1.032e-05	6.6021e-06	4.1612e-06	2.5864e-06	1.588e-06	9.6538e-07	5.8265e-07	3.5009e-07	2.0987e-07	1.2568e-07	7.5169e-08	4.4839e-08	2.6606e-08	1.5653e-08	9.1003e-09	5.2106e-09	2.9296e-09	1.6132e-09	8.6816e-10	4.5575e-10	2.3302e-10	1.1588e-10	5.5981e-11	2.6245e-11	1.1929e-11	5.2522e-12	2.2381e-12	9.2238e-13	3.6737e-13	1.4131e-13	5.2457e-14	1.8783e-14	6.4831e-15	2.1558e-15	6.9025e-16	2.1269e-16	6.3041e-17	1.7965e-17	4.9201e-18	1.2944e-18	3.2704e-19	7.9315e-20	1.846e-20	4.1218e-21	8.8273e-22	1.8128e-22	3.5695e-23	6.7375e-24	1.219e-24	2.1139e-25	3.5134e-26	5.5969e-27	8.546e-28
