8.7534e-05	8.2919e-05	7.9999e-05	7.8822e-05	7.9449e-05	8.1943e-05	8.6358e-05	9.272e-05	0.00010102	0.00011121	0.00012318	0.00013679	0.00015187	0.00016822	0.00018565	0.000204	0.00022315	0.00024304	0.00026374	0.0002854	0.0003083	0.00033281	0.0003594	0.0003886	0.00042094	0.00045697	0.00049714	0.00054188	0.00059148	0.00064617	0.00070611	0.00077142	0.00084226	0.00091887	0.0010017	0.0010913	0.0011889	0.001296	0.0014148	0.0015481	0.0017001	0.0018759	0.0020819	0.0023263	0.0026189	0.0029713	0.0033973	0.0039128	0.0045363	0.0052899	0.0061998	0.0072987	0.0086273	0.010238	0.0122	0.014601	0.017557	0.021218	0.025774	0.031466	0.038592	0.047519	0.058687	0.072614	0.089904	0.11124	0.13738	0.16915	0.2074	0.25301	0.30682	0.36961	0.44203	0.52455	0.61741	0.72059	0.83376	0.95626	1.0871	1.225	1.3683	1.5153	1.6641	1.8126	1.9587	2.1007	2.2366	2.3649	2.4842	2.5934	2.6917	2.7784	2.8531	2.9157	2.9661	3.0044	3.0307	3.0454	3.0484	3.0402	3.0209	2.9908	2.9498	2.8984	2.8365	2.7646	2.6827	2.5914	2.491	2.3823	2.2658	2.1427	2.0139	1.8807	1.7444	1.6065	1.4686	1.3321	1.1985	1.0694	0.94595	0.82936	0.72055	0.62023	0.52886	0.44666	0.37362	0.30952	0.25395	0.20637	0.16613	0.1325	0.10473	0.082064	0.063769	0.049166	0.03763	0.028608	0.021619	0.016249	0.012156	0.009058	0.0067261	0.0049798	0.0036773	0.002709	0.0019913	0.0014605	0.0010688	0.00078043	0.00056856	0.00041324	0.0002996	0.00021659	0.00015604	0.00011193	7.981e-05	5.6468e-05	3.9551e-05	2.7349e-05	1.8618e-05	1.2441e-05	8.1367e-06	5.1945e-06	3.2289e-06	1.9499e-06	1.1418e-06	6.472e-07	3.5466e-07	1.8769e-07	9.5867e-08	4.724e-08	2.2458e-08	1.0304e-08	4.5654e-09	1.955e-09	8.0986e-10	3.2488e-10	1.2632e-10	4.7663e-11	1.7475e-11	6.242e-12	2.1842e-12	7.5695e-13	2.6517e-13	9.7005e-14	3.855e-14	1.7111e-14	8.4683e-15	4.5576e-15	2.6012e-15	1.5594e-15	9.9028e-16	6.8e-16	5.1475e-16	4.3083e-16	3.9191e-16	3.7731e-16	3.7557e-16	3.8086e-16	3.9127e-16	4.0847e-16	4.3864e-16	4.9526e-16	6.0454e-16	8.1517e-16	1.2155e-15	1.9623e-15	3.3289e-15	5.7823e-15	1.0106e-14	1.7591e-14	3.0327e-14	5.1639e-14	8.6782e-14	1.4422e-13	2.3895e-13	4.0464e-13	7.429e-13	1.6198e-12	4.3985e-12	1.3953e-11	4.6594e-11	1.5298e-10	4.7894e-10	1.4138e-09	3.9225e-09	1.0229e-08	2.5103e-08	5.8091e-08	1.2702e-07	2.6299e-07	5.1682e-07	9.6607e-07	1.7216e-06	2.9316e-06	4.7806e-06	7.4818e-06	1.1263e-05	1.6342e-05	2.2906e-05	3.1078e-05	4.0898e-05	5.2308e-05	6.5148e-05	7.9165e-05	9.4029e-05	0.00010937	0.00012478	0.0001399	0.00015439	0.00016799	0.00018051	0.00019187	0.0002021	0.00021129	0.00021967	0.00022751	0.00023516	0.00024302	0.0002515	0.000261	0.00027191	0.00028455	0.0002992	0.00031605	0.00033526	0.00035692	0.00038109	0.0004078	0.00043708	0.00046896	0.00050341	0.00054038	0.00057975	0.00062129	0.00066467	0.00070941	0.00075494	0.00080057	0.00084553	0.00088903	0.00093029	0.00096859
0.00010602	0.00010188	9.9449e-05	9.8772e-05	9.9919e-05	0.00010295	0.00010792	0.00011485	0.00012372	0.00013446	0.00014697	0.0001611	0.00017668	0.00019352	0.00021144	0.00023031	0.00025006	0.0002707	0.00029234	0.00031523	0.00033971	0.00036622	0.0003953	0.0004275	0.0004634	0.00050352	0.00054831	0.00059815	0.00065332	0.00071399	0.0007803	0.00085238	0.00093038	0.0010146	0.0011055	0.0012038	0.0013108	0.001428	0.0015579	0.0017036	0.0018694	0.0020605	0.0022838	0.0025476	0.0028618	0.0032385	0.0036916	0.0042372	0.0048943	0.0056853	0.0066371	0.0077827	0.0091634	0.010832	0.012856	0.015322	0.018343	0.022061	0.026657	0.032357	0.039438	0.048238	0.059157	0.072668	0.089311	0.1097	0.1345	0.16445	0.20029	0.24279	0.29268	0.35064	0.41723	0.49287	0.57776	0.67189	0.77498	0.88647	1.0055	1.131	1.2615	1.3956	1.5315	1.6674	1.8016	1.9323	2.0579	2.1769	2.288	2.3902	2.4826	2.5645	2.6355	2.6953	2.7437	2.7809	2.8068	2.8217	2.8256	2.8187	2.8013	2.7735	2.7355	2.6876	2.63	2.5629	2.4867	2.4017	2.3085	2.2077	2.1	1.9863	1.8677	1.7451	1.62	1.4935	1.367	1.242	1.1196	1.0013	0.88807	0.78101	0.68091	0.58841	0.50393	0.42767	0.35964	0.29967	0.24743	0.20245	0.16417	0.13197	0.10518	0.083137	0.065201	0.050756	0.039237	0.03014	0.023018	0.017488	0.013226	0.0099632	0.0074789	0.0055967	0.0041765	0.0031087	0.0023082	0.0017098	0.0012635	0.00093156	0.00068521	0.00050282	0.00036808	0.00026872	0.00019556	0.00014174	0.00010218	7.315e-05	5.1889e-05	3.6385e-05	2.5153e-05	1.7097e-05	1.1396e-05	7.4304e-06	4.7278e-06	2.9296e-06	1.7648e-06	1.0319e-06	5.8502e-07	3.2128e-07	1.7082e-07	8.7908e-08	4.3791e-08	2.1121e-08	9.8689e-09	4.4701e-09	1.9642e-09	8.38e-10	3.475e-10	1.4028e-10	5.5281e-11	2.1379e-11	8.1938e-12	3.1655e-12	1.2648e-12	5.3894e-13	2.508e-13	1.2789e-13	7.0329e-14	4.082e-14	2.4677e-14	1.5537e-14	1.0315e-14	7.3601e-15	5.731e-15	4.8735e-15	4.4585e-15	4.2919e-15	4.2623e-15	4.3115e-15	4.419e-15	4.5995e-15	4.91e-15	5.4719e-15	6.5139e-15	8.4451e-15	1.1979e-14	1.8336e-14	2.956e-14	4.9014e-14	8.2141e-14	1.3758e-13	2.2882e-13	3.7654e-13	6.1205e-13	9.8235e-13	1.5595e-12	2.4645e-12	3.9455e-12	6.6617e-12	1.2679e-11	2.874e-11	7.6193e-11	2.1873e-10	6.3372e-10	1.781e-09	4.7703e-09	1.2097e-08	2.8996e-08	6.5723e-08	1.4107e-07	2.8724e-07	5.56e-07	1.0252e-06	1.8046e-06	3.0391e-06	4.9069e-06	7.6122e-06	1.137e-05	1.6386e-05	2.2831e-05	3.0818e-05	4.0381e-05	5.146e-05	6.3902e-05	7.7466e-05	9.1845e-05	0.00010669	0.00012163	0.00013631	0.00015044	0.00016378	0.00017617	0.00018756	0.00019798	0.00020758	0.00021658	0.00022529	0.00023409	0.00024335	0.0002535	0.00026492	0.00027795	0.00029288	0.00030991	0.00032917	0.00035073	0.0003746	0.00040076	0.00042918	0.00045983	0.00049265	0.00052762	0.00056464	0.00060359	0.00064424	0.00068628	0.00072929	0.00077272	0.00081595	0.00085829	0.00089903	0.00093747	0.00097298
0.00012505	0.0001217	0.00012002	0.00012007	0.00012189	0.00012556	0.00013111	0.00013855	0.00014785	0.00015896	0.00017176	0.00018611	0.00020186	0.00021885	0.00023694	0.00025606	0.00027619	0.00029741	0.00031992	0.00034403	0.00037016	0.00039882	0.00043056	0.00046598	0.00050563	0.00055003	0.00059961	0.0006547	0.00071554	0.0007823	0.00085509	0.00093405	0.0010194	0.0011114	0.0012107	0.0013181	0.0014349	0.001563	0.0017049	0.0018639	0.0020444	0.002252	0.0024937	0.0027778	0.0031147	0.0035164	0.0039969	0.0045726	0.0052628	0.0060901	0.0070819	0.0082714	0.0097003	0.011421	0.013499	0.016021	0.019092	0.02285	0.027463	0.033143	0.040143	0.048773	0.059395	0.072434	0.088371	0.10775	0.13116	0.15923	0.19263	0.23201	0.278	0.3312	0.39206	0.46097	0.53808	0.62341	0.7167	0.81748	0.92503	1.0384	1.1564	1.2778	1.4009	1.5244	1.6466	1.766	1.8811	1.9905	2.0931	2.1879	2.2739	2.3505	2.4173	2.4739	2.5201	2.5558	2.581	2.5958	2.6004	2.5949	2.5794	2.5541	2.5193	2.4752	2.422	2.3601	2.2897	2.2113	2.1255	2.0328	1.934	1.8298	1.7213	1.6094	1.4952	1.3799	1.2648	1.1509	1.0396	0.93182	0.82866	0.73098	0.63949	0.55476	0.47716	0.40688	0.34396	0.28824	0.23947	0.19725	0.1611	0.13049	0.10484	0.083582	0.066139	0.051969	0.040566	0.031474	0.024284	0.018644	0.01425	0.010848	0.0082293	0.0062229	0.004692	0.0035281	0.0026459	0.0019793	0.0014769	0.0010993	0.00081632	0.00060472	0.00044688	0.00032937	0.00024203	0.00017718	0.00012908	9.3435e-05	6.708e-05	4.7659e-05	3.3431e-05	2.3094e-05	1.5674e-05	1.0427e-05	6.7841e-06	4.309e-06	2.6674e-06	1.6071e-06	9.4145e-07	5.3579e-07	2.961e-07	1.5887e-07	8.2763e-08	4.1871e-08	2.0581e-08	9.8345e-09	4.572e-09	2.0701e-09	9.1442e-10	3.952e-10	1.6796e-10	7.0815e-11	3.0041e-11	1.3085e-11	5.9925e-12	2.9412e-12	1.556e-12	8.7892e-13	5.2152e-13	3.2075e-13	2.0351e-13	1.3388e-13	9.2554e-14	6.8356e-14	5.4564e-14	4.7042e-14	4.3244e-14	4.1614e-14	4.1233e-14	4.1604e-14	4.2543e-14	4.4157e-14	4.6892e-14	5.1681e-14	6.0228e-14	7.548e-14	1.0239e-13	1.4909e-13	2.2875e-13	3.6224e-13	5.8211e-13	9.3828e-13	1.506e-12	2.3967e-12	3.773e-12	5.869e-12	9.02e-12	1.3717e-11	2.0738e-11	3.1559e-11	4.9659e-11	8.4616e-11	1.6404e-10	3.6582e-10	8.986e-10	2.2869e-09	5.7635e-09	1.4037e-08	3.2669e-08	7.2352e-08	1.5233e-07	3.051e-07	5.8207e-07	1.0597e-06	1.8444e-06	3.0753e-06	4.9222e-06	7.5776e-06	1.1244e-05	1.6112e-05	2.2342e-05	3.0037e-05	3.9229e-05	4.9864e-05	6.18e-05	7.4817e-05	8.8632e-05	0.00010292	0.00011735	0.0001316	0.0001454	0.00015854	0.0001709	0.00018243	0.00019321	0.0002034	0.00021325	0.00022307	0.00023325	0.00024417	0.00025622	0.00026975	0.00028506	0.00030238	0.00032184	0.0003435	0.00036735	0.00039332	0.00042133	0.00045127	0.00048306	0.00051662	0.00055186	0.00058869	0.00062698	0.00066653	0.00070704	0.00074814	0.00078934	0.00083008	0.00086974	0.0009077	0.00094335	0.00097612
0.00014409	0.00014179	0.00014111	0.00014207	0.00014472	0.00014912	0.00015528	0.0001632	0.00017285	0.00018417	0.00019707	0.00021142	0.0002271	0.00024401	0.00026207	0.00028127	0.00030167	0.00032344	0.00034686	0.00037231	0.00040026	0.00043127	0.00046591	0.00050479	0.00054843	0.00059734	0.00065189	0.0007124	0.00077908	0.00085208	0.00093153	0.0010176	0.0011105	0.0012107	0.0013188	0.0014359	0.0015632	0.0017029	0.0018576	0.0020308	0.0022271	0.0024523	0.0027133	0.0030188	0.003379	0.0038061	0.0043141	0.0049197	0.0056421	0.0065043	0.0075338	0.0087641	0.010236	0.012003	0.014127	0.016692	0.0198	0.023579	0.028186	0.033816	0.040701	0.049122	0.059403	0.071923	0.087107	0.10543	0.12741	0.15359	0.18454	0.22083	0.263	0.31153	0.36685	0.42924	0.49886	0.57571	0.65959	0.75008	0.84659	0.94831	1.0542	1.1632	1.2741	1.3854	1.4957	1.6039	1.7084	1.8082	1.902	1.9891	2.0684	2.1394	2.2016	2.2546	2.2981	2.332	2.3563	2.371	2.3761	2.3718	2.3582	2.3355	2.304	2.2638	2.2152	2.1585	2.0942	2.0226	1.9442	1.8597	1.7697	1.675	1.5765	1.475	1.3716	1.2673	1.1631	1.0602	0.9595	0.86203	0.76863	0.68008	0.597	0.51989	0.44908	0.38474	0.32692	0.27551	0.23028	0.19092	0.15703	0.12814	0.10377	0.083417	0.066585	0.052796	0.041601	0.032591	0.025397	0.019696	0.015208	0.011697	0.0089651	0.0068489	0.0052165	0.003962	0.0030008	0.0022668	0.0017078	0.0012834	0.00096202	0.00071936	0.00053657	0.00039919	0.00029611	0.00021887	0.00016105	0.00011782	8.5559e-05	6.155e-05	4.3772e-05	3.0706e-05	2.1199e-05	1.4374e-05	9.5534e-06	6.2128e-06	3.9476e-06	2.4476e-06	1.4795e-06	8.7132e-07	4.9971e-07	2.7904e-07	1.5172e-07	8.0351e-08	4.1465e-08	2.0866e-08	1.025e-08	4.9244e-09	2.3203e-09	1.0775e-09	4.9695e-10	2.3034e-10	1.0901e-10	5.3641e-11	2.7859e-11	1.5363e-11	8.9531e-12	5.4505e-12	3.4269e-12	2.2107e-12	1.4639e-12	1.0025e-12	7.1907e-13	5.4771e-13	4.4682e-13	3.8985e-13	3.5984e-13	3.4612e-13	3.4218e-13	3.444e-13	3.5137e-13	3.6374e-13	3.8446e-13	4.197e-13	4.8036e-13	5.8471e-13	7.6235e-13	1.0603e-12	1.5517e-12	2.3487e-12	3.6202e-12	5.6162e-12	8.7012e-12	1.3398e-11	2.0442e-11	3.0859e-11	4.6055e-11	6.7956e-11	9.9254e-11	1.4401e-10	2.0936e-10	3.1045e-10	4.8423e-10	8.2558e-10	1.5747e-09	3.3128e-09	7.3679e-09	1.6589e-08	3.671e-08	7.8557e-08	1.6131e-07	3.169e-07	5.9524e-07	1.0697e-06	1.8416e-06	3.0421e-06	4.8304e-06	7.3864e-06	1.0898e-05	1.5544e-05	2.1472e-05	2.8782e-05	3.7506e-05	4.7599e-05	5.8937e-05	7.1324e-05	8.4507e-05	9.8196e-05	0.00011209	0.00012591	0.00013941	0.00015242	0.00016483	0.00017664	0.00018794	0.00019891	0.00020982	0.00022098	0.00023277	0.00024555	0.00025969	0.0002755	0.00029322	0.00031299	0.0003349	0.00035893	0.00038498	0.00041292	0.00044261	0.00047389	0.00050663	0.0005407	0.00057601	0.00061244	0.00064988	0.00068813	0.00072695	0.00076599	0.00080485	0.00084302	0.00087998	0.00091518	0.00094807	0.00097819
0.00016273	0.00016171	0.0001622	0.00016423	0.00016784	0.00017305	0.00017986	0.00018827	0.00019823	0.00020969	0.00022258	0.00023681	0.00025232	0.00026906	0.00028703	0.0003063	0.00032702	0.00034946	0.00037395	0.00040095	0.00043098	0.00046462	0.00050246	0.00054507	0.00059298	0.00064663	0.00070638	0.00077252	0.00084525	0.00092472	0.0010111	0.0011046	0.0012055	0.0013143	0.0014318	0.001559	0.0016976	0.0018497	0.0020181	0.0022065	0.0024196	0.0026631	0.0029444	0.0032719	0.003656	0.0041087	0.0046441	0.0052789	0.0060325	0.0069277	0.0079922	0.0092593	0.01077	0.012575	0.014736	0.017333	0.020461	0.024241	0.028819	0.034371	0.041109	0.049284	0.059186	0.071147	0.085541	0.10278	0.12331	0.14761	0.17614	0.20941	0.24785	0.29189	0.34187	0.39803	0.46051	0.5293	0.60423	0.68496	0.77097	0.8616	0.95599	1.0532	1.1521	1.2516	1.3505	1.4476	1.5418	1.6319	1.717	1.7962	1.8687	1.9338	1.9911	2.0402	2.0807	2.1126	2.1357	2.15	2.1555	2.1523	2.1406	2.1205	2.0922	2.056	2.012	1.9608	1.9025	1.8376	1.7667	1.6903	1.6091	1.5237	1.4349	1.3435	1.2505	1.1568	1.0633	0.97083	0.88041	0.79281	0.70881	0.62906	0.55411	0.48438	0.42018	0.36166	0.30888	0.26175	0.22009	0.18365	0.15208	0.12501	0.10202	0.082674	0.066553	0.053238	0.042334	0.033478	0.02634	0.020628	0.016087	0.012497	0.0096743	0.0074649	0.0057425	0.0044047	0.003369	0.0025697	0.0019547	0.001483	0.0011222	0.00084696	0.00063763	0.00047877	0.00035845	0.00026745	0.00019871	0.00014686	0.00010781	7.8478e-05	5.6543e-05	4.0243e-05	2.8238e-05	1.9497e-05	1.3223e-05	8.7945e-06	5.7288e-06	3.6508e-06	2.2741e-06	1.3839e-06	8.2236e-07	4.7718e-07	2.704e-07	1.4969e-07	8.1014e-08	4.2912e-08	2.2286e-08	1.1381e-08	5.7402e-09	2.879e-09	1.4498e-09	7.4225e-10	3.9161e-10	2.1539e-10	1.2419e-10	7.491e-11	4.6916e-11	3.0239e-11	1.9928e-11	1.3401e-11	9.2261e-12	6.5557e-12	4.8627e-12	3.8072e-12	3.1659e-12	2.7911e-12	2.5853e-12	2.4855e-12	2.4518e-12	2.4616e-12	2.5057e-12	2.5872e-12	2.7231e-12	2.9481e-12	3.3227e-12	3.9448e-12	4.9678e-12	6.6272e-12	9.2772e-12	1.3442e-11	1.9884e-11	2.9697e-11	4.4421e-11	6.6196e-11	9.7944e-11	1.436e-10	2.0838e-10	2.9915e-10	4.2488e-10	5.9762e-10	8.3469e-10	1.1645e-09	1.6418e-09	2.387e-09	3.6771e-09	6.1461e-09	1.119e-08	2.1726e-08	4.3501e-08	8.7182e-08	1.7139e-07	3.2673e-07	6.0054e-07	1.0618e-06	1.805e-06	2.9519e-06	4.6497e-06	7.0644e-06	1.037e-05	1.4731e-05	2.0288e-05	2.7136e-05	3.5312e-05	4.4784e-05	5.545e-05	6.7143e-05	7.9643e-05	9.2698e-05	0.00010605	0.00011945	0.00013269	0.00014563	0.0001582	0.00017042	0.0001824	0.00019434	0.0002065	0.0002192	0.00023279	0.00024763	0.00026402	0.00028221	0.0003024	0.00032466	0.000349	0.00037532	0.00040347	0.00043325	0.00046447	0.00049691	0.0005304	0.0005648	0.00059999	0.00063586	0.00067227	0.00070908	0.00074607	0.00078296	0.0008194	0.00085497	0.00088922	0.00092168	0.00095191	0.0009795
0.00018089	0.00018126	0.00018305	0.00018627	0.00019093	0.00019702	0.00020453	0.00021346	0.00022375	0.00023537	0.00024827	0.00026241	0.00027779	0.00029444	0.00031243	0.00033193	0.00035319	0.00037653	0.00040239	0.00043126	0.00046371	0.00050032	0.00054168	0.00058834	0.0006408	0.00069947	0.00076469	0.00083672	0.00091577	0.001002	0.0010956	0.0011969	0.0013062	0.0014242	0.0015517	0.0016898	0.0018404	0.0020057	0.0021887	0.0023931	0.0026237	0.0028865	0.0031886	0.0035386	0.0039467	0.0044249	0.0049873	0.0056504	0.0064335	0.0073595	0.0084558	0.0097554	0.011298	0.013134	0.015322	0.017938	0.021071	0.024833	0.029357	0.034805	0.041365	0.049262	0.05875	0.070122	0.0837	0.099841	0.11893	0.14135	0.16753	0.19786	0.23273	0.27248	0.31738	0.36765	0.42339	0.48459	0.55111	0.62266	0.69881	0.779	0.86252	0.94855	1.0362	1.1245	1.2124	1.2988	1.3829	1.4636	1.54	1.6113	1.6769	1.7361	1.7883	1.8333	1.8707	1.9003	1.9219	1.9357	1.9414	1.9392	1.9293	1.9117	1.8866	1.8542	1.8149	1.769	1.7167	1.6586	1.595	1.5265	1.4537	1.3773	1.2979	1.2164	1.1334	1.0497	0.96631	0.88388	0.80321	0.72501	0.64995	0.57859	0.51141	0.44877	0.39093	0.33805	0.29017	0.24724	0.20912	0.1756	0.14639	0.12119	0.099649	0.081396	0.066067	0.053304	0.042764	0.034128	0.027103	0.021428	0.016872	0.013235	0.010346	0.0080615	0.0062623	0.0048503	0.003746	0.0028849	0.0022157	0.001697	0.0012963	0.00098759	0.00075043	0.00056867	0.00042968	0.00032358	0.0002427	0.00018114	0.00013437	9.8929e-05	7.2169e-05	5.2078e-05	3.7109e-05	2.6067e-05	1.8022e-05	1.2246e-05	8.1692e-06	5.3445e-06	3.4266e-06	2.152e-06	1.3236e-06	7.9721e-07	4.7039e-07	2.7208e-07	1.5444e-07	8.6181e-08	4.7408e-08	2.5812e-08	1.3991e-08	7.6086e-09	4.1915e-09	2.363e-09	1.3751e-09	8.2993e-10	5.1925e-10	3.3522e-10	2.2189e-10	1.4976e-10	1.0276e-10	7.1746e-11	5.1196e-11	3.7634e-11	2.8777e-11	2.309e-11	1.9526e-11	1.7371e-11	1.614e-11	1.5508e-11	1.5266e-11	1.529e-11	1.5529e-11	1.5994e-11	1.6768e-11	1.8022e-11	2.0046e-11	2.3295e-11	2.8464e-11	3.6581e-11	4.9144e-11	6.8296e-11	9.7056e-11	1.3961e-10	2.0168e-10	2.9095e-10	4.1762e-10	5.95e-10	8.4018e-10	1.1749e-09	1.6265e-09	2.2294e-09	3.0279e-09	4.0829e-09	5.4882e-09	7.4115e-09	1.0186e-08	1.4507e-08	2.1827e-08	3.5072e-08	5.9869e-08	1.0647e-07	1.9252e-07	3.4666e-07	6.1283e-07	1.0545e-06	1.7583e-06	2.8354e-06	4.4199e-06	6.6634e-06	9.725e-06	1.3758e-05	1.8894e-05	2.5228e-05	3.2803e-05	4.1603e-05	5.155e-05	6.2509e-05	7.4297e-05	8.6706e-05	9.9515e-05	0.00011252	0.00012556	0.00013851	0.00015135	0.00016411	0.00017692	0.00018999	0.00020359	0.000218	0.00023357	0.00025059	0.00026933	0.00028998	0.00031266	0.00033739	0.00036408	0.0003926	0.00042271	0.00045418	0.00048676	0.00052019	0.00055428	0.00058884	0.00062376	0.00065891	0.00069419	0.00072945	0.00076454	0.00079922	0.00083322	0.0008662	0.00089779	0.00092761	0.00095529	0.00098051
0.00019886	0.00020068	0.00020383	0.00020829	0.00021404	0.00022108	0.00022937	0.00023889	0.0002496	0.00026149	0.00027454	0.00028877	0.00030423	0.00032103	0.00033933	0.00035939	0.00038154	0.00040619	0.00043382	0.00046497	0.00050024	0.0005402	0.00058544	0.00063648	0.0006938	0.00075779	0.00082877	0.00090699	0.00099269	0.0010861	0.0011874	0.0012969	0.0014152	0.0015428	0.0016809	0.0018307	0.001994	0.0021732	0.0023714	0.0025925	0.0028414	0.0031239	0.0034472	0.0038199	0.0042519	0.0047553	0.0053439	0.006034	0.0068448	0.007799	0.0089236	0.010251	0.01182	0.013678	0.015883	0.018504	0.021625	0.025349	0.029798	0.035115	0.04147	0.04906	0.058107	0.068865	0.081612	0.096651	0.11431	0.13491	0.15881	0.18633	0.21779	0.25347	0.2936	0.33835	0.38779	0.44192	0.50061	0.56362	0.6306	0.70107	0.77445	0.85005	0.92711	1.0048	1.0823	1.1587	1.2331	1.3046	1.3726	1.4363	1.495	1.5482	1.5953	1.6361	1.6702	1.6974	1.7175	1.7304	1.7362	1.7349	1.7266	1.7113	1.6893	1.6608	1.626	1.5852	1.5388	1.4871	1.4306	1.3698	1.3052	1.2373	1.1669	1.0946	1.0211	0.94705	0.87318	0.80017	0.72869	0.65936	0.59273	0.52929	0.46945	0.41352	0.36175	0.31426	0.2711	0.23224	0.19758	0.16694	0.1401	0.11679	0.096741	0.079633	0.065158	0.053012	0.042898	0.03454	0.027681	0.022088	0.017555	0.013902	0.010971	0.0086307	0.006769	0.0052933	0.0041275	0.0032094	0.0024885	0.0019243	0.0014839	0.0011412	0.00087523	0.0006694	0.00051046	0.00038797	0.00029374	0.00022137	0.0001659	0.00012349	9.1168e-05	6.6663e-05	4.8207e-05	3.4425e-05	2.4244e-05	1.6817e-05	1.1478e-05	7.702e-06	5.0783e-06	3.2889e-06	2.0921e-06	1.3074e-06	8.0319e-07	4.8557e-07	2.8936e-07	1.704e-07	9.9508e-08	5.7907e-08	3.3788e-08	1.9913e-08	1.1943e-08	7.3365e-09	4.6334e-09	3.0097e-09	2.0055e-09	1.3649e-09	9.4472e-10	6.631e-10	4.7173e-10	3.4087e-10	2.5143e-10	1.9067e-10	1.4985e-10	1.2288e-10	1.0547e-10	9.4585e-11	8.8122e-11	8.4627e-11	8.3137e-11	8.3075e-11	8.4179e-11	8.6483e-11	9.0338e-11	9.6468e-11	1.0608e-10	1.2104e-10	1.4408e-10	1.7915e-10	2.318e-10	3.0976e-10	4.2352e-10	5.8723e-10	8.1959e-10	1.145e-09	1.5949e-09	2.2091e-09	3.0372e-09	4.1405e-09	5.5935e-09	7.4863e-09	9.9278e-09	1.3053e-08	1.7042e-08	2.2154e-08	2.8825e-08	3.7849e-08	5.0749e-08	7.044e-08	1.0234e-07	1.5611e-07	2.4812e-07	4.0461e-07	6.6553e-07	1.0882e-06	1.7507e-06	2.7528e-06	4.2153e-06	6.2752e-06	9.0775e-06	1.2764e-05	1.7459e-05	2.3257e-05	3.0211e-05	3.8321e-05	4.7538e-05	5.7758e-05	6.8842e-05	8.0621e-05	9.2923e-05	0.00010559	0.00011849	0.00013155	0.00014476	0.0001582	0.00017199	0.00018634	0.00020151	0.00021777	0.00023542	0.00025471	0.00027585	0.00029896	0.0003241	0.00035121	0.00038015	0.00041072	0.00044264	0.00047563	0.00050938	0.00054364	0.00057815	0.00061275	0.00064728	0.00068163	0.0007157	0.00074939	0.00078257	0.00081507	0.00084668	0.00087716	0.00090621	0.00093354	0.00095887	0.00098193
0.00021743	0.0002207	0.0002252	0.00023092	0.00023782	0.00024587	0.00025503	0.00026527	0.00027657	0.00028894	0.00030241	0.00031703	0.00033293	0.00035028	0.00036934	0.00039044	0.00041397	0.00044041	0.0004703	0.0005042	0.00054272	0.00058645	0.00063595	0.00069172	0.00075423	0.00082385	0.0009009	0.00098566	0.0010784	0.0011793	0.0012887	0.0014069	0.0015347	0.0016726	0.0018219	0.0019839	0.0021605	0.0023543	0.0025684	0.0028068	0.0030743	0.0033768	0.0037215	0.0041167	0.0045723	0.0051001	0.0057138	0.0064294	0.0072657	0.0082451	0.0093939	0.010744	0.012332	0.014204	0.016414	0.019027	0.022121	0.025788	0.030139	0.035302	0.041427	0.048685	0.05727	0.067398	0.079307	0.093253	0.10951	0.12835	0.15005	0.1749	0.20315	0.23502	0.2707	0.31031	0.35393	0.40153	0.453	0.50816	0.56669	0.62822	0.69224	0.7582	0.82546	0.89332	0.96107	1.028	1.0932	1.1562	1.2161	1.2724	1.3245	1.3718	1.4139	1.4505	1.4812	1.5058	1.5242	1.5363	1.5421	1.5414	1.5346	1.5215	1.5024	1.4775	1.447	1.4111	1.3703	1.3248	1.275	1.2214	1.1646	1.1049	1.0429	0.97936	0.9147	0.8496	0.78464	0.72043	0.65753	0.59646	0.53769	0.48166	0.42869	0.37908	0.33301	0.29062	0.25196	0.21701	0.18568	0.15785	0.13333	0.11192	0.093372	0.077442	0.063866	0.052386	0.04275	0.034719	0.028071	0.022602	0.018129	0.014489	0.011542	0.0091652	0.0072563	0.0057284	0.0045094	0.0035399	0.0027712	0.0021633	0.0016842	0.0013075	0.0010123	0.00078149	0.00060149	0.00046143	0.00035266	0.00026836	0.00020316	0.00015286	0.00011418	8.4577e-05	6.2043e-05	4.5019e-05	3.2276e-05	2.284e-05	1.5941e-05	1.0965e-05	7.4312e-06	4.9612e-06	3.2635e-06	2.1162e-06	1.3542e-06	8.5633e-07	5.3634e-07	3.3371e-07	2.0708e-07	1.2877e-07	8.069e-08	5.1229e-08	3.311e-08	2.185e-08	1.4734e-08	1.0139e-08	7.0991e-09	5.0426e-09	3.6247e-09	2.634e-09	1.9365e-09	1.4446e-09	1.0986e-09	8.5713e-10	6.9046e-10	5.7724e-10	5.0198e-10	4.5342e-10	4.2349e-10	4.065e-10	3.986e-10	3.9739e-10	4.0175e-10	4.1172e-10	4.2857e-10	4.5497e-10	4.9534e-10	5.5632e-10	6.4744e-10	7.8202e-10	9.7827e-10	1.2607e-09	1.6616e-09	2.2234e-09	3.0002e-09	4.0608e-09	5.491e-09	7.3966e-09	9.9058e-09	1.3172e-08	1.7378e-08	2.2735e-08	2.9491e-08	3.7935e-08	4.8412e-08	6.1364e-08	7.7412e-08	9.7525e-08	1.2336e-07	1.5784e-07	2.0618e-07	2.7737e-07	3.8633e-07	5.5675e-07	8.2428e-07	1.2399e-06	1.8728e-06	2.8115e-06	4.1636e-06	6.0517e-06	8.6074e-06	1.1961e-05	1.6232e-05	2.1515e-05	2.7872e-05	3.5322e-05	4.3843e-05	5.3367e-05	6.3796e-05	7.5006e-05	8.687e-05	9.9273e-05	0.00011213	0.0001254	0.00013911	0.00015334	0.00016822	0.00018397	0.00020082	0.00021901	0.00023879	0.00026036	0.00028386	0.00030937	0.00033686	0.00036622	0.00039725	0.00042969	0.00046322	0.00049753	0.00053229	0.0005672	0.00060201	0.00063652	0.00067059	0.00070409	0.00073696	0.00076912	0.00080047	0.0008309	0.00086028	0.00088843	0.00091515	0.00094023	0.00096345	0.00098463
0.00023795	0.00024262	0.00024846	0.00025545	0.00026354	0.00027268	0.00028284	0.00029399	0.00030614	0.0003193	0.00033355	0.000349	0.00036582	0.00038426	0.00040464	0.00042734	0.00045283	0.00048163	0.0005143	0.00055146	0.00059369	0.0006416	0.00069572	0.00075657	0.00082459	0.00090016	0.00098362	0.0010752	0.0011753	0.0012841	0.0014021	0.0015296	0.0016673	0.001816	0.001977	0.0021517	0.0023423	0.0025511	0.0027815	0.0030375	0.0033238	0.0036464	0.0040122	0.0044296	0.0049081	0.0054594	0.0060967	0.0068358	0.0076951	0.0086963	0.0098651	0.011232	0.012832	0.014709	0.016913	0.019504	0.022555	0.026147	0.03038	0.035368	0.04124	0.048146	0.056251	0.065741	0.076814	0.089686	0.10458	0.12173	0.14135	0.16368	0.18892	0.21725	0.24881	0.2837	0.32197	0.3636	0.40849	0.45648	0.50732	0.56068	0.61617	0.67332	0.7316	0.79043	0.84921	0.90732	0.96412	1.019	1.0714	1.1206	1.1664	1.208	1.2452	1.2777	1.305	1.3271	1.3438	1.3549	1.3604	1.3604	1.3548	1.3437	1.3273	1.3057	1.2792	1.248	1.2124	1.1727	1.1293	1.0825	1.0329	0.9808	0.92675	0.87126	0.81484	0.75801	0.70131	0.64522	0.59023	0.53679	0.4853	0.43611	0.38953	0.34578	0.30504	0.26744	0.23301	0.20175	0.1736	0.14848	0.12622	0.10667	0.089623	0.074883	0.062233	0.051455	0.042337	0.034676	0.028279	0.022971	0.01859	0.014993	0.012053	0.0096596	0.0077192	0.0061512	0.0048882	0.0038738	0.0030616	0.002413	0.0018966	0.0014866	0.0011619	0.00090553	0.00070358	0.00054488	0.00042044	0.00032309	0.00024711	0.00018795	0.00014204	0.00010656	7.9284e-05	5.8442e-05	4.2643e-05	3.0777e-05	2.1957e-05	1.5479e-05	1.0781e-05	7.4191e-06	5.0471e-06	3.397e-06	2.265e-06	1.4989e-06	9.8688e-07	6.4848e-07	4.2684e-07	2.8258e-07	1.889e-07	1.2796e-07	8.8033e-08	6.1562e-08	4.3733e-08	3.1508e-08	2.2973e-08	1.6919e-08	1.2573e-08	9.4284e-09	7.1455e-09	5.4897e-09	4.2941e-09	3.4376e-09	2.8311e-09	2.4079e-09	2.1184e-09	1.9259e-09	1.8029e-09	1.73e-09	1.6935e-09	1.6846e-09	1.6992e-09	1.7369e-09	1.8018e-09	1.9025e-09	2.0532e-09	2.2746e-09	2.596e-09	3.0573e-09	3.7113e-09	4.6271e-09	5.8932e-09	7.6221e-09	9.9538e-09	1.3061e-08	1.7152e-08	2.2479e-08	2.9337e-08	3.8071e-08	4.9078e-08	6.2808e-08	7.9771e-08	1.0054e-07	1.2575e-07	1.5616e-07	1.9272e-07	2.3667e-07	2.8994e-07	3.5555e-07	4.3857e-07	5.4737e-07	6.9551e-07	9.0411e-07	1.2047e-06	1.642e-06	2.2768e-06	3.1868e-06	4.4671e-06	6.2269e-06	8.585e-06	1.1662e-05	1.5571e-05	2.041e-05	2.6247e-05	3.3123e-05	4.104e-05	4.9965e-05	5.9841e-05	7.0589e-05	8.2127e-05	9.4384e-05	0.00010731	0.00012091	0.00013522	0.00015034	0.00016642	0.00018363	0.00020219	0.00022232	0.0002442	0.00026799	0.00029376	0.00032152	0.00035119	0.00038259	0.00041549	0.00044958	0.00048451	0.00051993	0.00055551	0.00059092	0.0006259	0.00066026	0.00069384	0.00072653	0.00075827	0.00078901	0.0008187	0.00084728	0.00087467	0.00090077	0.00092545	0.00094857	0.00097001	0.00098964
0.00026227	0.00026828	0.00027546	0.00028374	0.00029309	0.00030345	0.00031481	0.00032714	0.00034045	0.00035481	0.00037031	0.00038711	0.00040542	0.00042556	0.00044787	0.00047281	0.00050087	0.00053261	0.00056862	0.00060952	0.0006559	0.00070838	0.00076748	0.00083372	0.00090755	0.00098936	0.0010795	0.0011783	0.0012861	0.0014032	0.00153	0.0016671	0.0018152	0.0019752	0.0021483	0.0023363	0.002541	0.0027653	0.0030122	0.0032858	0.003591	0.0039334	0.00432	0.0047588	0.0052593	0.0058327	0.006492	0.0072524	0.0081318	0.0091511	0.010335	0.011712	0.013317	0.01519	0.017377	0.019934	0.022925	0.026425	0.030521	0.035314	0.040915	0.047453	0.055069	0.063917	0.074165	0.08599	0.099576	0.11511	0.13277	0.15275	0.1752	0.20025	0.22804	0.25862	0.29202	0.32823	0.36717	0.40868	0.45258	0.49858	0.54636	0.59554	0.64568	0.69631	0.74692	0.797	0.84601	0.89344	0.93878	0.98154	1.0213	1.0576	1.0902	1.1187	1.1428	1.1624	1.1772	1.1873	1.1925	1.1929	1.1884	1.1791	1.1651	1.1467	1.1239	1.097	1.0662	1.0319	0.99429	0.95382	0.91083	0.86573	0.81892	0.77087	0.72199	0.67276	0.6236	0.57494	0.52719	0.48073	0.4359	0.39299	0.35226	0.31392	0.27811	0.24494	0.21445	0.18666	0.16153	0.13897	0.11889	0.10114	0.085571	0.072019	0.060306	0.050252	0.041682	0.034423	0.028312	0.023197	0.018938	0.01541	0.0125	0.01011	0.0081537	0.0065581	0.0052606	0.0042086	0.003358	0.0026721	0.0021206	0.0016782	0.0013244	0.0010422	0.00081764	0.00063939	0.00049824	0.00038675	0.0002989	0.00022987	0.00017579	0.00013359	0.00010081	7.5488e-05	5.6055e-05	4.1257e-05	3.0087e-05	2.1735e-05	1.5556e-05	1.1035e-05	7.7634e-06	5.4227e-06	3.7663e-06	2.6061e-06	1.8009e-06	1.2462e-06	8.6612e-07	6.0635e-07	4.2864e-07	3.0652e-07	2.219e-07	1.626e-07	1.2048e-07	9.015e-08	6.8023e-08	5.1711e-08	3.9596e-08	3.0562e-08	2.3822e-08	1.8807e-08	1.5094e-08	1.2369e-08	1.0389e-08	8.9725e-09	7.9767e-09	7.2943e-09	6.844e-09	6.5657e-09	6.417e-09	6.3699e-09	6.4101e-09	6.5356e-09	6.757e-09	7.0986e-09	7.6002e-09	8.3198e-09	9.3367e-09	1.0757e-08	1.2716e-08	1.5389e-08	1.8991e-08	2.3789e-08	3.0108e-08	3.8333e-08	4.8923e-08	6.241e-08	7.9406e-08	1.0061e-07	1.2679e-07	1.5882e-07	1.9764e-07	2.4427e-07	2.9985e-07	3.6561e-07	4.4297e-07	5.3365e-07	6.3997e-07	7.6524e-07	9.1453e-07	1.0958e-06	1.3215e-06	1.6104e-06	1.9905e-06	2.5009e-06	3.1947e-06	4.1401e-06	5.4206e-06	7.1336e-06	9.3862e-06	1.229e-05	1.5953e-05	2.0473e-05	2.5929e-05	3.2376e-05	3.984e-05	4.8324e-05	5.7804e-05	6.8245e-05	7.9607e-05	9.1859e-05	0.00010499	0.00011903	0.00013404	0.00015013	0.00016743	0.00018612	0.00020638	0.00022837	0.00025225	0.0002781	0.00030596	0.00033575	0.00036736	0.00040056	0.00043508	0.00047056	0.00050665	0.00054298	0.00057919	0.00061497	0.00065005	0.00068422	0.00071733	0.00074929	0.00078005	0.00080957	0.00083785	0.00086486	0.00089059	0.00091498	0.00093799	0.00095955	0.00097958	0.00099803
0.00029261	0.00029996	0.00030848	0.00031814	0.00032888	0.00034067	0.00035348	0.00036731	0.0003822	0.00039822	0.0004155	0.00043423	0.00045466	0.00047713	0.00050203	0.00052983	0.00056106	0.0005963	0.00063615	0.00068124	0.00073217	0.00078955	0.00085393	0.00092584	0.0010057	0.001094	0.0011911	0.0012973	0.001413	0.0015387	0.0016747	0.0018217	0.0019805	0.0021521	0.0023377	0.002539	0.0027582	0.002998	0.0032615	0.0035527	0.0038764	0.0042382	0.0046448	0.0051041	0.0056254	0.0062192	0.0068984	0.0076775	0.0085737	0.0096072	0.010801	0.012183	0.013785	0.015644	0.017802	0.020312	0.023229	0.026621	0.030564	0.035144	0.04046	0.046618	0.053738	0.061949	0.071389	0.082203	0.094539	0.10855	0.12438	0.14216	0.16204	0.1841	0.20845	0.23512	0.26414	0.29548	0.32906	0.36479	0.40247	0.44189	0.48278	0.52482	0.56767	0.61093	0.65419	0.69701	0.73897	0.77961	0.81853	0.8553	0.88955	0.92093	0.94912	0.97385	0.99489	1.012	1.0252	1.0342	1.039	1.0396	1.036	1.0283	1.0165	1.0009	0.98142	0.95842	0.93209	0.90266	0.87043	0.83569	0.79877	0.76002	0.71981	0.6785	0.63647	0.59411	0.55178	0.50985	0.46866	0.42852	0.38972	0.35252	0.31712	0.28371	0.25241	0.22332	0.19649	0.17192	0.1496	0.12947	0.11145	0.09543	0.081295	0.06891	0.058131	0.048813	0.04081	0.033977	0.028179	0.023284	0.019175	0.01574	0.012882	0.010513	0.0085568	0.0069461	0.0056242	0.0045422	0.0036589	0.0029398	0.0023557	0.0018827	0.0015004	0.0011924	0.00094477	0.00074622	0.00058743	0.00046075	0.00035996	0.00027998	0.00021673	0.00016688	0.00012775	9.7192e-05	7.3455e-05	5.5134e-05	4.1094e-05	3.0418e-05	2.2367e-05	1.6348e-05	1.1886e-05	8.6077e-06	6.2176e-06	4.4878e-06	3.2434e-06	2.3521e-06	1.7151e-06	1.2597e-06	9.332e-07	6.9776e-07	5.2659e-07	4.0091e-07	3.0765e-07	2.3772e-07	1.8483e-07	1.4456e-07	1.1376e-07	9.0179e-08	7.214e-08	5.8392e-08	4.7975e-08	4.0146e-08	3.4323e-08	3.0049e-08	2.6966e-08	2.4793e-08	2.3314e-08	2.2365e-08	2.1828e-08	2.1625e-08	2.1711e-08	2.2077e-08	2.2747e-08	2.3782e-08	2.5279e-08	2.7382e-08	3.0281e-08	3.4227e-08	3.9534e-08	4.6593e-08	5.5876e-08	6.7954e-08	8.3495e-08	1.0328e-07	1.2821e-07	1.5931e-07	1.977e-07	2.4467e-07	3.0158e-07	3.6992e-07	4.5129e-07	5.4739e-07	6.6e-07	7.9104e-07	9.4259e-07	1.117e-06	1.3172e-06	1.5471e-06	1.8118e-06	2.1194e-06	2.4814e-06	2.9152e-06	3.4457e-06	4.1076e-06	4.9476e-06	6.0257e-06	7.4157e-06	9.2044e-06	1.1489e-05	1.4372e-05	1.7957e-05	2.2341e-05	2.761e-05	3.3831e-05	4.1053e-05	4.9303e-05	5.8593e-05	6.8922e-05	8.0288e-05	9.2696e-05	0.00010617	0.00012076	0.00013654	0.00015362	0.00017215	0.00019226	0.00021411	0.00023783	0.00026352	0.00029122	0.0003209	0.00035246	0.00038572	0.00042042	0.00045626	0.00049288	0.00052989	0.00056692	0.00060362	0.00063966	0.00067478	0.00070877	0.0007415	0.00077286	0.00080283	0.00083139	0.00085856	0.00088436	0.0009088	0.0009319	0.00095366	0.00097406	0.00099309	0.0010107
0.00033131	0.00034004	0.00035001	0.00036119	0.00037353	0.00038701	0.00040161	0.00041735	0.00043428	0.00045248	0.0004721	0.00049336	0.00051653	0.00054195	0.00057005	0.00060131	0.00063626	0.0006755	0.00071963	0.00076929	0.00082509	0.00088766	0.00095755	0.0010353	0.0011214	0.0012163	0.0013205	0.0014343	0.0015581	0.0016925	0.0018379	0.001995	0.0021646	0.0023479	0.0025461	0.0027609	0.0029946	0.0032498	0.0035296	0.0038381	0.0041798	0.0045602	0.0049859	0.0054645	0.0060049	0.0066173	0.0073139	0.0081088	0.0090183	0.010061	0.01126	0.01264	0.014231	0.016067	0.018186	0.020635	0.023465	0.026734	0.030509	0.034864	0.039881	0.045652	0.052276	0.059859	0.068514	0.078357	0.089509	0.10209	0.11621	0.13198	0.1495	0.16884	0.19008	0.21323	0.23832	0.26531	0.29415	0.32472	0.35689	0.39048	0.42527	0.46099	0.49737	0.53408	0.57079	0.60714	0.64278	0.67733	0.71045	0.74179	0.77103	0.79787	0.82205	0.84331	0.86146	0.87632	0.88777	0.8957	0.90006	0.90083	0.898	0.89163	0.8818	0.86859	0.85217	0.83268	0.81032	0.7853	0.75787	0.72829	0.69684	0.66381	0.62951	0.59426	0.55838	0.52218	0.48598	0.45008	0.41477	0.3803	0.34693	0.31486	0.28428	0.25532	0.22812	0.20275	0.17926	0.15766	0.13795	0.12008	0.104	0.089627	0.076868	0.065615	0.055757	0.047174	0.039747	0.033358	0.027892	0.023242	0.019304	0.015984	0.013198	0.010868	0.0089261	0.007313	0.0059767	0.0048728	0.003963	0.0032151	0.0026017	0.0020999	0.0016904	0.0013569	0.0010861	0.00086677	0.00068953	0.0005467	0.00043191	0.00033992	0.00026643	0.00020793	0.00016152	0.00012486	9.6047e-05	7.3512e-05	5.5988e-05	4.2444e-05	3.2042e-05	2.4104e-05	1.8086e-05	1.355e-05	1.015e-05	7.6136e-06	5.7271e-06	4.3266e-06	3.2869e-06	2.5135e-06	1.9358e-06	1.5016e-06	1.173e-06	9.2209e-07	7.2906e-07	5.7942e-07	4.6273e-07	3.7137e-07	2.997e-07	2.4348e-07	1.9948e-07	1.6519e-07	1.3863e-07	1.1821e-07	1.0268e-07	9.0999e-08	8.2361e-08	7.6109e-08	7.1726e-08	6.8817e-08	6.7086e-08	6.6334e-08	6.6443e-08	6.7378e-08	6.9186e-08	7.1993e-08	7.6017e-08	8.1565e-08	8.905e-08	9.8999e-08	1.1206e-07	1.2902e-07	1.5081e-07	1.7852e-07	2.1341e-07	2.5689e-07	3.1056e-07	3.7619e-07	4.5568e-07	5.5113e-07	6.6475e-07	7.9886e-07	9.5593e-07	1.1385e-06	1.3492e-06	1.5907e-06	1.8661e-06	2.1785e-06	2.5315e-06	2.9298e-06	3.3794e-06	3.8883e-06	4.4682e-06	5.1356e-06	5.9134e-06	6.8333e-06	7.9371e-06	9.2782e-06	1.0923e-05	1.2948e-05	1.5443e-05	1.8501e-05	2.2221e-05	2.6697e-05	3.2019e-05	3.8263e-05	4.5493e-05	5.3757e-05	6.3092e-05	7.3527e-05	8.509e-05	9.7816e-05	0.00011176	0.00012697	0.00014356	0.00016164	0.00018132	0.00020274	0.00022602	0.00025126	0.00027852	0.00030778	0.00033898	0.00037198	0.00040656	0.00044246	0.00047933	0.00051681	0.00055451	0.00059206	0.00062911	0.00066534	0.00070048	0.00073435	0.0007668	0.00079775	0.00082716	0.00085505	0.00088145	0.00090641	0.00092997	0.0009522	0.00097313	0.0009928	0.0010112	0.0010285
0.00038058	0.00039081	0.00040239	0.00041532	0.00042954	0.00044504	0.00046183	0.00047992	0.00049937	0.00052028	0.00054282	0.00056719	0.00059368	0.00062264	0.00065449	0.00068971	0.00072886	0.00077251	0.00082128	0.00087581	0.00093673	0.0010047	0.0010802	0.0011639	0.0012564	0.001358	0.0014693	0.0015907	0.0017227	0.0018658	0.0020206	0.0021878	0.0023683	0.0025631	0.0027738	0.0030021	0.00325	0.0035202	0.003816	0.004141	0.0045	0.0048981	0.0053416	0.0058379	0.0063955	0.0070242	0.0077356	0.0085429	0.0094617	0.01051	0.011708	0.013079	0.01465	0.016454	0.018524	0.020901	0.023631	0.026764	0.030357	0.034475	0.039186	0.044566	0.050698	0.057667	0.065565	0.074484	0.084521	0.095766	0.10831	0.12223	0.13761	0.1545	0.17294	0.19296	0.21455	0.23769	0.26233	0.28836	0.31569	0.34416	0.37358	0.40376	0.43445	0.46541	0.49635	0.52698	0.55702	0.58617	0.61412	0.64061	0.66536	0.68811	0.70863	0.72673	0.74222	0.75495	0.76481	0.77171	0.77559	0.77642	0.77421	0.76899	0.76082	0.74979	0.73601	0.71962	0.70079	0.67969	0.65653	0.63154	0.60494	0.57699	0.54795	0.51808	0.48765	0.45692	0.42616	0.39562	0.36553	0.33611	0.30757	0.28009	0.25381	0.22886	0.20534	0.18333	0.16288	0.14399	0.12667	0.1109	0.096634	0.083809	0.072355	0.062191	0.053227	0.045369	0.03852	0.032584	0.027467	0.023077	0.01933	0.016144	0.013447	0.011173	0.0092598	0.0076564	0.0063161	0.0051985	0.0042687	0.0034971	0.002858	0.00233	0.0018947	0.0015366	0.0012429	0.0010024	0.00080615	0.00064634	0.00051657	0.0004115	0.0003267	0.00025847	0.00020377	0.00016007	0.0001253	9.7759e-05	7.6034e-05	5.8978e-05	4.5651e-05	3.5285e-05	2.7257e-05	2.1064e-05	1.6303e-05	1.265e-05	9.8513e-06	7.7066e-06	6.0605e-06	4.793e-06	3.8126e-06	3.0498e-06	2.4525e-06	1.9817e-06	1.6083e-06	1.3105e-06	1.0723e-06	8.8111e-07	7.2768e-07	6.0468e-07	5.0636e-07	4.2811e-07	3.662e-07	3.1758e-07	2.7977e-07	2.507e-07	2.2868e-07	2.1234e-07	2.0056e-07	1.9249e-07	1.8747e-07	1.8504e-07	1.8491e-07	1.8699e-07	1.9133e-07	1.9818e-07	2.0794e-07	2.2121e-07	2.3878e-07	2.6164e-07	2.9099e-07	3.2826e-07	3.751e-07	4.3339e-07	5.0524e-07	5.93e-07	6.9923e-07	8.2669e-07	9.7833e-07	1.1572e-06	1.3667e-06	1.61e-06	1.8906e-06	2.212e-06	2.5778e-06	2.9917e-06	3.4576e-06	3.9797e-06	4.5627e-06	5.2121e-06	5.935e-06	6.7405e-06	7.6406e-06	8.6521e-06	9.7972e-06	1.1106e-05	1.2616e-05	1.4377e-05	1.6448e-05	1.8899e-05	2.1811e-05	2.5269e-05	2.9364e-05	3.4188e-05	3.9827e-05	4.6364e-05	5.387e-05	6.2407e-05	7.203e-05	8.279e-05	9.4738e-05	0.00010793	0.00012244	0.00013834	0.00015574	0.00017475	0.00019548	0.00021805	0.00024255	0.00026905	0.00029757	0.00032808	0.00036046	0.00039456	0.00043014	0.00046691	0.00050452	0.00054261	0.00058079	0.00061871	0.000656	0.00069236	0.00072754	0.00076135	0.00079365	0.00082437	0.00085348	0.000881	0.00090696	0.00093145	0.00095454	0.0009763	0.00099681	0.0010161	0.0010343	0.0010515
0.0004421	0.00045402	0.00046747	0.00048241	0.00049885	0.00051676	0.00053615	0.00055705	0.00057952	0.00060366	0.00062963	0.00065764	0.00068796	0.00072095	0.00075702	0.00079665	0.00084036	0.00088875	0.00094244	0.0010021	0.0010683	0.0011417	0.001223	0.0013127	0.0014115	0.0015198	0.0016381	0.0017671	0.0019071	0.0020588	0.0022228	0.0024	0.0025911	0.0027974	0.0030203	0.0032615	0.0035232	0.0038079	0.0041188	0.0044596	0.0048347	0.0052491	0.0057089	0.006221	0.0067936	0.0074359	0.0081589	0.0089751	0.0098988	0.010947	0.012137	0.013493	0.015038	0.016799	0.01881	0.021104	0.023722	0.026708	0.03011	0.033982	0.038382	0.043372	0.049019	0.055393	0.062566	0.070612	0.079604	0.089614	0.10071	0.11295	0.12639	0.14107	0.15703	0.17426	0.19276	0.21252	0.23347	0.25554	0.27864	0.30264	0.3274	0.35275	0.37849	0.40443	0.43034	0.45598	0.48113	0.50552	0.52894	0.55114	0.5719	0.59101	0.60828	0.62353	0.63662	0.64741	0.6558	0.66172	0.6651	0.66593	0.66421	0.65995	0.6532	0.64405	0.63257	0.61889	0.60314	0.58548	0.56607	0.5451	0.52277	0.49929	0.47486	0.44972	0.42408	0.39817	0.37219	0.34636	0.32087	0.29591	0.27164	0.24821	0.22575	0.20437	0.18414	0.16515	0.14743	0.131	0.11587	0.10202	0.089425	0.078043	0.067819	0.05869	0.050587	0.043435	0.037158	0.031677	0.026917	0.022801	0.019259	0.016223	0.013631	0.011426	0.009556	0.0079742	0.0066399	0.0055171	0.0045742	0.0037842	0.0031236	0.0025724	0.0021134	0.0017321	0.0014159	0.0011545	0.0009388	0.00076135	0.00061575	0.00049663	0.00039946	0.00032043	0.00025636	0.0002046	0.00016292	0.00012948	0.00010274	8.1428e-05	6.4504e-05	5.1106e-05	4.0527e-05	3.2193e-05	2.5637e-05	2.0483e-05	1.643e-05	1.3237e-05	1.0716e-05	8.7171e-06	7.1249e-06	5.8499e-06	4.8231e-06	3.9918e-06	3.3155e-06	2.7632e-06	2.311e-06	1.9405e-06	1.6369e-06	1.3885e-06	1.1861e-06	1.0217e-06	8.891e-07	7.8283e-07	6.9843e-07	6.3213e-07	5.8077e-07	5.4175e-07	5.1291e-07	4.9255e-07	4.7934e-07	4.7234e-07	4.7094e-07	4.7485e-07	4.8413e-07	4.9915e-07	5.2059e-07	5.4947e-07	5.8712e-07	6.352e-07	6.9572e-07	7.7097e-07	8.6361e-07	9.7656e-07	1.1131e-06	1.2766e-06	1.471e-06	1.7001e-06	1.968e-06	2.279e-06	2.6374e-06	3.0476e-06	3.514e-06	4.0412e-06	4.6337e-06	5.2963e-06	6.0338e-06	6.8516e-06	7.7557e-06	8.753e-06	9.852e-06	1.1063e-05	1.24e-05	1.3881e-05	1.5527e-05	1.7369e-05	1.9442e-05	2.1793e-05	2.4475e-05	2.7552e-05	3.1095e-05	3.5183e-05	3.9898e-05	4.5323e-05	5.1542e-05	5.8634e-05	6.6673e-05	7.5728e-05	8.5865e-05	9.7148e-05	0.00010964	0.00012343	0.00013857	0.00015518	0.00017336	0.00019321	0.00021485	0.00023836	0.00026384	0.00029132	0.0003208	0.00035222	0.00038545	0.00042032	0.00045656	0.00049389	0.00053197	0.00057043	0.0006089	0.00064703	0.00068447	0.00072094	0.00075618	0.00079001	0.0008223	0.00085297	0.000882	0.00090942	0.00093527	0.00095962	0.00098258	0.0010042	0.0010247	0.001044	0.0010622	0.0010795
0.00051684	0.0005307	0.00054629	0.00056358	0.00058258	0.00060327	0.00062568	0.00064981	0.00067574	0.00070356	0.00073341	0.00076551	0.0008001	0.00083752	0.00087818	0.00092253	0.00097112	0.0010245	0.0010833	0.0011482	0.0012198	0.0012988	0.0013859	0.0014816	0.0015866	0.0017014	0.0018267	0.001963	0.0021108	0.0022709	0.0024439	0.0026306	0.0028319	0.0030491	0.0032837	0.0035372	0.0038119	0.0041103	0.0044353	0.0047907	0.0051804	0.0056095	0.0060836	0.0066093	0.0071942	0.0078472	0.0085783	0.0093992	0.010323	0.011365	0.012543	0.013876	0.015385	0.017097	0.019038	0.02124	0.023737	0.026566	0.029768	0.033389	0.037475	0.042079	0.047253	0.053054	0.059538	0.066762	0.074784	0.083656	0.09343	0.10415	0.11585	0.12857	0.14231	0.15708	0.17288	0.18967	0.20741	0.22604	0.24548	0.26562	0.28634	0.30752	0.329	0.35061	0.37217	0.39349	0.41439	0.43467	0.45414	0.4726	0.48987	0.50579	0.52018	0.53292	0.54386	0.55291	0.55996	0.56497	0.56787	0.56865	0.5673	0.56383	0.55829	0.55074	0.54124	0.52989	0.51681	0.50213	0.48597	0.4685	0.44988	0.43027	0.40987	0.38884	0.36737	0.34565	0.32384	0.30212	0.28065	0.25958	0.23905	0.21919	0.20009	0.18185	0.16455	0.14825	0.13297	0.11875	0.10559	0.093496	0.082438	0.07239	0.063313	0.055159	0.047875	0.041404	0.035686	0.030657	0.026256	0.022422	0.019097	0.016224	0.013751	0.011628	0.0098127	0.0082637	0.0069453	0.0058258	0.004877	0.0040744	0.0033969	0.0028261	0.002346	0.001943	0.0016056	0.0013236	0.0010886	0.00089317	0.00073111	0.0005971	0.00048659	0.00039573	0.00032124	0.00026037	0.00021076	0.00017045	0.00013779	0.0001114	9.0121e-05	7.2999e-05	5.9243e-05	4.82e-05	3.9339e-05	3.2223e-05	2.6501e-05	2.1887e-05	1.8156e-05	1.5125e-05	1.2651e-05	1.0623e-05	8.9509e-06	7.5665e-06	6.4158e-06	5.4567e-06	4.6559e-06	3.9869e-06	3.4285e-06	2.9633e-06	2.577e-06	2.2576e-06	1.995e-06	1.7805e-06	1.6068e-06	1.4675e-06	1.3574e-06	1.2718e-06	1.207e-06	1.16e-06	1.1283e-06	1.1102e-06	1.1044e-06	1.1103e-06	1.1279e-06	1.1575e-06	1.2002e-06	1.2575e-06	1.3314e-06	1.4243e-06	1.5392e-06	1.6795e-06	1.8489e-06	2.0516e-06	2.2921e-06	2.575e-06	2.9055e-06	3.2885e-06	3.7293e-06	4.2333e-06	4.8057e-06	5.4519e-06	6.1773e-06	6.9873e-06	7.8874e-06	8.8834e-06	9.9812e-06	1.1188e-05	1.251e-05	1.3957e-05	1.554e-05	1.727e-05	1.9164e-05	2.124e-05	2.3524e-05	2.6043e-05	2.8834e-05	3.1939e-05	3.5408e-05	3.9298e-05	4.3673e-05	4.86e-05	5.4153e-05	6.0405e-05	6.7431e-05	7.5305e-05	8.4096e-05	9.3875e-05	0.00010471	0.00011668	0.00012984	0.0001443	0.00016013	0.00017744	0.00019633	0.00021691	0.00023929	0.00026355	0.00028976	0.00031794	0.00034808	0.00038008	0.00041383	0.00044913	0.00048574	0.00052335	0.00056163	0.00060025	0.00063883	0.00067704	0.00071455	0.00075108	0.0007864	0.00082031	0.0008527	0.00088348	0.00091263	0.00094018	0.00096616	0.00099066	0.0010138	0.0010356	0.0010562	0.0010757	0.0010943	0.0011118
0.00060488	0.00062095	0.00063895	0.0006589	0.00068078	0.0007046	0.00073036	0.00075809	0.00078784	0.00081969	0.00085378	0.00089029	0.00092947	0.00097163	0.0010172	0.0010665	0.0011202	0.0011787	0.0012428	0.0013131	0.0013902	0.0014748	0.0015675	0.0016692	0.0017803	0.0019016	0.0020336	0.0021769	0.0023323	0.0025003	0.0026817	0.0028774	0.0030884	0.0033159	0.0035612	0.0038262	0.0041129	0.0044237	0.0047615	0.0051298	0.0055325	0.0059742	0.0064603	0.006997	0.0075913	0.0082515	0.0089868	0.009808	0.010727	0.011758	0.012916	0.014219	0.015686	0.017339	0.019203	0.021303	0.02367	0.026335	0.029332	0.032698	0.036473	0.040697	0.045414	0.050667	0.0565	0.062957	0.070081	0.077911	0.086485	0.095833	0.10598	0.11695	0.12874	0.14136	0.15479	0.16901	0.18397	0.19963	0.21591	0.23273	0.25	0.26761	0.28543	0.30333	0.32117	0.3388	0.35606	0.3728	0.38887	0.4041	0.41836	0.43151	0.4434	0.45393	0.46299	0.4705	0.47637	0.48054	0.48299	0.48368	0.48261	0.4798	0.47526	0.46905	0.46124	0.45188	0.44108	0.42895	0.41558	0.40111	0.38568	0.36942	0.35247	0.33499	0.31712	0.29901	0.2808	0.26264	0.24465	0.22696	0.20968	0.19292	0.17677	0.16129	0.14657	0.13263	0.11953	0.10728	0.095901	0.085385	0.075725	0.066901	0.058884	0.051641	0.04513	0.039309	0.034129	0.029543	0.0255	0.021952	0.018851	0.01615	0.013806	0.011778	0.010028	0.0085219	0.0072289	0.006121	0.0051735	0.0043647	0.0036753	0.0030889	0.0025908	0.0021687	0.0018115	0.00151	0.0012561	0.0010427	0.00086386	0.00071437	0.00058974	0.00048614	0.00040025	0.00032924	0.00027069	0.00022253	0.000183	0.00015064	0.00012417	0.00010256	8.4926e-05	7.0537e-05	5.8789e-05	4.9183e-05	4.1312e-05	3.4842e-05	2.9505e-05	2.5083e-05	2.1402e-05	1.8324e-05	1.5737e-05	1.3555e-05	1.1708e-05	1.0142e-05	8.8108e-06	7.6801e-06	6.7203e-06	5.9071e-06	5.2204e-06	4.6428e-06	4.1595e-06	3.7576e-06	3.4261e-06	3.1553e-06	2.9368e-06	2.7635e-06	2.6294e-06	2.5294e-06	2.4596e-06	2.4169e-06	2.3991e-06	2.405e-06	2.434e-06	2.4865e-06	2.5637e-06	2.6675e-06	2.8005e-06	2.9659e-06	3.1675e-06	3.4097e-06	3.6975e-06	4.0359e-06	4.4307e-06	4.8875e-06	5.4123e-06	6.0113e-06	6.6906e-06	7.4562e-06	8.3142e-06	9.2708e-06	1.0332e-05	1.1504e-05	1.2794e-05	1.4207e-05	1.5752e-05	1.7437e-05	1.927e-05	2.1264e-05	2.343e-05	2.5784e-05	2.8344e-05	3.1131e-05	3.4171e-05	3.7495e-05	4.1136e-05	4.5135e-05	4.9538e-05	5.4395e-05	5.976e-05	6.5692e-05	7.2252e-05	7.9503e-05	8.7508e-05	9.633e-05	0.00010603	0.00011668	0.00012835	0.0001411	0.00015502	0.00017019	0.00018671	0.00020469	0.00022422	0.00024542	0.00026838	0.00029319	0.00031989	0.00034851	0.00037901	0.00041132	0.00044529	0.00048073	0.00051741	0.00055503	0.00059329	0.00063186	0.00067038	0.00070854	0.00074603	0.00078257	0.00081795	0.00085198	0.00088453	0.00091553	0.00094494	0.00097278	0.00099907	0.0010239	0.0010474	0.0010695	0.0010905	0.0011104	0.0011292	0.0011472
0.00070538	0.00072391	0.00074459	0.00076744	0.00079247	0.00081966	0.00084904	0.00088061	0.00091443	0.00095055	0.0009891	0.0010303	0.0010742	0.0011213	0.0011719	0.0012264	0.0012853	0.0013492	0.0014187	0.0014944	0.001577	0.0016673	0.0017658	0.0018733	0.0019904	0.0021179	0.0022563	0.0024064	0.0025688	0.0027442	0.0029335	0.0031375	0.0033573	0.0035941	0.0038493	0.0041245	0.0044219	0.0047436	0.0050926	0.0054719	0.0058854	0.0063374	0.0068328	0.0073774	0.0079777	0.0086413	0.0093766	0.010193	0.011102	0.012116	0.013248	0.014514	0.015931	0.017519	0.019297	0.021289	0.023519	0.026014	0.028803	0.031915	0.035382	0.039237	0.043514	0.048247	0.053469	0.059214	0.065512	0.072393	0.079883	0.088003	0.09677	0.10619	0.11627	0.12701	0.13839	0.15038	0.16295	0.17605	0.18964	0.20363	0.21796	0.23253	0.24724	0.26199	0.27667	0.29116	0.30533	0.31906	0.33223	0.34471	0.3564	0.36716	0.37691	0.38554	0.39298	0.39913	0.40396	0.4074	0.40942	0.41	0.40915	0.40686	0.40315	0.39807	0.39166	0.38399	0.37513	0.36515	0.35415	0.34224	0.32952	0.31611	0.30211	0.28765	0.27286	0.25784	0.24272	0.22761	0.21262	0.19784	0.18337	0.1693	0.1557	0.14263	0.13015	0.1183	0.10712	0.096619	0.08682	0.077725	0.069328	0.061617	0.054573	0.048173	0.042385	0.037177	0.032514	0.028356	0.024664	0.021401	0.018527	0.016005	0.013798	0.011873	0.010199	0.0087455	0.0074868	0.0063987	0.0054598	0.004651	0.0039552	0.0033577	0.0028454	0.0024069	0.0020323	0.0017128	0.0014409	0.0012101	0.0010145	0.00084934	0.00071011	0.00059308	0.00049497	0.00041292	0.00034447	0.00028749	0.00024016	0.00020091	0.00016839	0.00014149	0.00011922	0.00010079	8.5522e-05	7.2844e-05	6.2292e-05	5.348e-05	4.6092e-05	3.9872e-05	3.461e-05	3.0139e-05	2.6323e-05	2.3053e-05	2.0244e-05	1.7824e-05	1.5738e-05	1.3938e-05	1.2388e-05	1.1054e-05	9.9102e-06	8.9328e-06	8.1015e-06	7.3989e-06	6.8092e-06	6.3189e-06	5.9162e-06	5.5905e-06	5.3331e-06	5.1364e-06	4.9944e-06	4.9022e-06	4.8562e-06	4.8541e-06	4.8945e-06	4.9775e-06	5.1039e-06	5.2757e-06	5.4956e-06	5.7673e-06	6.0951e-06	6.484e-06	6.9395e-06	7.4674e-06	8.0738e-06	8.7653e-06	9.5482e-06	1.0429e-05	1.1415e-05	1.2511e-05	1.3725e-05	1.5063e-05	1.6532e-05	1.8139e-05	1.989e-05	2.1795e-05	2.3862e-05	2.61e-05	2.8522e-05	3.1141e-05	3.3972e-05	3.7034e-05	4.0346e-05	4.3933e-05	4.7822e-05	5.2043e-05	5.6631e-05	6.1622e-05	6.7058e-05	7.2982e-05	7.944e-05	8.6479e-05	9.4149e-05	0.0001025	0.00011158	0.00012145	0.00013215	0.00014376	0.00015632	0.00016991	0.00018461	0.00020051	0.0002177	0.00023629	0.00025638	0.00027807	0.00030147	0.00032664	0.00035363	0.00038246	0.00041308	0.00044542	0.00047934	0.00051466	0.00055116	0.00058856	0.00062657	0.00066488	0.00070317	0.00074114	0.00077849	0.00081498	0.00085037	0.0008845	0.00091723	0.00094849	0.00097821	0.0010064	0.0010331	0.0010584	0.0010823	0.0011049	0.0011262	0.0011465	0.0011657	0.001184
0.00081673	0.00083792	0.00086147	0.00088741	0.00091574	0.00094647	0.0009796	0.0010151	0.0010531	0.0010937	0.0011368	0.0011827	0.0012316	0.0012837	0.0013395	0.0013993	0.0014635	0.0015329	0.0016078	0.0016891	0.0017773	0.0018731	0.0019773	0.0020906	0.0022136	0.002347	0.0024916	0.002648	0.0028169	0.0029992	0.0031956	0.0034071	0.0036348	0.0038797	0.0041434	0.0044275	0.0047339	0.0050648	0.0054229	0.0058111	0.0062329	0.0066924	0.0071941	0.0077432	0.0083458	0.0090086	0.0097393	0.010546	0.01144	0.012431	0.013531	0.014754	0.016114	0.017629	0.019315	0.021192	0.023281	0.025603	0.028182	0.031043	0.03421	0.037709	0.041567	0.045809	0.050461	0.055547	0.061091	0.067112	0.073627	0.080652	0.088195	0.096261	0.10485	0.11395	0.12355	0.13362	0.14414	0.15507	0.16636	0.17795	0.18978	0.20179	0.21388	0.22598	0.23799	0.24983	0.2614	0.27259	0.28332	0.29348	0.30298	0.31173	0.31966	0.32667	0.33271	0.33771	0.34163	0.34442	0.34607	0.34654	0.34584	0.34397	0.34094	0.3368	0.33156	0.3253	0.31805	0.30989	0.30089	0.29113	0.2807	0.26969	0.25819	0.2463	0.23411	0.22172	0.20922	0.19671	0.18428	0.17199	0.15993	0.14817	0.13677	0.12579	0.11526	0.10523	0.095725	0.086767	0.07837	0.070539	0.063275	0.056571	0.050414	0.044787	0.039669	0.035036	0.03086	0.027112	0.023762	0.020779	0.018133	0.015792	0.013729	0.011915	0.010324	0.008931	0.0077146	0.0066541	0.005731	0.0049286	0.0042321	0.0036285	0.0031061	0.0026547	0.0022653	0.0019299	0.0016417	0.0013944	0.0011828	0.0010021	0.0008482	0.00071739	0.0006065	0.00051272	0.00043358	0.00036694	0.00031093	0.00026392	0.00022451	0.00019149	0.00016383	0.00014064	0.00012117	0.00010481	9.1005e-05	7.9328e-05	6.941e-05	6.095e-05	5.3701e-05	4.746e-05	4.2066e-05	3.7386e-05	3.3312e-05	2.9759e-05	2.6656e-05	2.3945e-05	2.1577e-05	1.9513e-05	1.7718e-05	1.6161e-05	1.4818e-05	1.3665e-05	1.2683e-05	1.1853e-05	1.1159e-05	1.0588e-05	1.0127e-05	9.7672e-06	9.4988e-06	9.315e-06	9.2104e-06	9.181e-06	9.2243e-06	9.339e-06	9.5252e-06	9.7843e-06	1.0118e-05	1.0531e-05	1.1025e-05	1.1607e-05	1.2281e-05	1.3053e-05	1.3928e-05	1.4914e-05	1.6016e-05	1.724e-05	1.8594e-05	2.0082e-05	2.1713e-05	2.3492e-05	2.5427e-05	2.7526e-05	2.9796e-05	3.2247e-05	3.489e-05	3.7737e-05	4.0802e-05	4.41e-05	4.765e-05	5.1473e-05	5.5592e-05	6.0032e-05	6.4823e-05	6.9993e-05	7.5576e-05	8.1606e-05	8.8118e-05	9.5149e-05	0.00010274	0.00011091	0.00011972	0.0001292	0.00013938	0.00015031	0.00016204	0.0001746	0.00018807	0.0002025	0.00021797	0.00023457	0.00025239	0.00027152	0.00029208	0.00031416	0.00033786	0.00036323	0.00039032	0.00041915	0.00044967	0.00048182	0.00051546	0.00055042	0.0005865	0.00062346	0.00066101	0.00069887	0.00073675	0.00077437	0.00081145	0.00084775	0.00088306	0.00091722	0.00095007	0.00098154	0.0010116	0.0010401	0.0010672	0.0010929	0.0011172	0.0011402	0.001162	0.0011826	0.0012021	0.0012205
0.00093681	0.00096078	0.00098732	0.0010164	0.0010481	0.0010824	0.0011193	0.0011589	0.0012011	0.001246	0.0012937	0.0013444	0.0013982	0.0014554	0.0015164	0.0015815	0.0016512	0.001726	0.0018065	0.0018934	0.0019872	0.0020886	0.0021985	0.0023174	0.002446	0.0025852	0.0027355	0.0028978	0.0030727	0.0032611	0.0034639	0.0036819	0.0039162	0.0041681	0.0044389	0.0047301	0.0050437	0.0053817	0.0057466	0.0061411	0.0065685	0.0070324	0.007537	0.0080869	0.0086877	0.0093453	0.010067	0.010859	0.011732	0.012694	0.013756	0.014929	0.016227	0.017663	0.019252	0.02101	0.022954	0.025103	0.027474	0.030088	0.032964	0.036122	0.039583	0.043366	0.04749	0.051972	0.056828	0.062073	0.067717	0.07377	0.080234	0.087111	0.094398	0.10208	0.11015	0.11859	0.12736	0.13644	0.14578	0.15535	0.16508	0.17492	0.18482	0.19469	0.20448	0.21411	0.2235	0.23257	0.24125	0.24947	0.25714	0.26421	0.2706	0.27625	0.28111	0.28513	0.28828	0.29052	0.29182	0.29219	0.2916	0.29006	0.28759	0.28422	0.27995	0.27485	0.26895	0.2623	0.25497	0.24701	0.2385	0.2295	0.2201	0.21036	0.20036	0.19019	0.17991	0.1696	0.15933	0.14916	0.13915	0.12937	0.11986	0.11066	0.10182	0.093368	0.085326	0.077717	0.070554	0.063844	0.057589	0.051788	0.046432	0.041511	0.037009	0.032908	0.02919	0.02583	0.022808	0.020097	0.017675	0.015517	0.0136	0.011902	0.0104	0.0090751	0.0079083	0.0068824	0.0059817	0.0051922	0.0045008	0.0038963	0.0033684	0.002908	0.0025071	0.0021586	0.0018561	0.001594	0.0013674	0.001172	0.0010037	0.00085917	0.00073532	0.00062942	0.00053905	0.00046211	0.0003967	0.00034117	0.00029409	0.0002542	0.00022039	0.00019173	0.00016741	0.00014673	0.00012909	0.00011401	0.00010106	8.9901e-05	8.0236e-05	7.1831e-05	6.4491e-05	5.8056e-05	5.2398e-05	4.741e-05	4.3006e-05	3.9115e-05	3.5678e-05	3.2646e-05	2.9976e-05	2.7632e-05	2.5582e-05	2.3798e-05	2.2256e-05	2.0933e-05	1.9811e-05	1.8872e-05	1.81e-05	1.7483e-05	1.7009e-05	1.6669e-05	1.6455e-05	1.636e-05	1.6381e-05	1.6514e-05	1.6758e-05	1.7112e-05	1.7577e-05	1.8155e-05	1.8848e-05	1.9659e-05	2.0593e-05	2.1654e-05	2.2845e-05	2.4173e-05	2.5643e-05	2.7259e-05	2.9027e-05	3.0953e-05	3.3044e-05	3.5305e-05	3.7746e-05	4.0373e-05	4.3197e-05	4.6228e-05	4.9479e-05	5.2964e-05	5.67e-05	6.0704e-05	6.4999e-05	6.9606e-05	7.4552e-05	7.9862e-05	8.5565e-05	9.1691e-05	9.827e-05	0.00010533	0.00011291	0.00012102	0.00012971	0.000139	0.00014891	0.00015947	0.00017071	0.00018266	0.00019535	0.00020884	0.00022316	0.00023838	0.00025457	0.0002718	0.00029017	0.00030978	0.00033071	0.00035307	0.00037693	0.00040235	0.00042939	0.00045804	0.00048827	0.00052002	0.00055317	0.00058756	0.00062302	0.00065931	0.00069619	0.0007334	0.00077068	0.00080776	0.00084439	0.00088035	0.00091543	0.00094946	0.0009823	0.0010139	0.0010441	0.0010729	0.0011002	0.0011262	0.0011509	0.0011742	0.0011962	0.001217	0.0012366	0.0012551
0.0010633	0.0010901	0.0011197	0.001152	0.001187	0.0012248	0.0012655	0.0013089	0.0013552	0.0014044	0.0014567	0.001512	0.0015707	0.001633	0.0016991	0.0017695	0.0018447	0.001925	0.0020111	0.0021035	0.0022029	0.0023099	0.0024253	0.0025497	0.0026838	0.0028283	0.002984	0.0031516	0.0033319	0.0035256	0.0037337	0.0039571	0.0041969	0.0044542	0.0047304	0.005027	0.0053457	0.0056885	0.0060577	0.0064557	0.0068856	0.0073505	0.0078543	0.0084011	0.0089958	0.0096437	0.010351	0.011124	0.01197	0.012898	0.013916	0.015035	0.016264	0.017617	0.019105	0.020741	0.02254	0.024515	0.026682	0.029057	0.031654	0.034489	0.037577	0.040932	0.044569	0.048499	0.052734	0.057282	0.06215	0.067342	0.07286	0.078701	0.084859	0.091326	0.098086	0.10512	0.11241	0.11992	0.12763	0.13549	0.14346	0.1515	0.15956	0.16759	0.17552	0.18331	0.19089	0.19821	0.20519	0.21179	0.21795	0.22361	0.22873	0.23324	0.23712	0.24033	0.24283	0.24459	0.24561	0.24587	0.24537	0.2441	0.24208	0.23933	0.23587	0.23172	0.22693	0.22154	0.21558	0.20912	0.2022	0.19488	0.18722	0.17928	0.17112	0.16281	0.15439	0.14592	0.13748	0.12909	0.12083	0.11272	0.10481	0.09715	0.089756	0.082661	0.075886	0.069451	0.063366	0.057642	0.052281	0.047284	0.042648	0.038364	0.034424	0.030814	0.02752	0.024526	0.021813	0.019365	0.017161	0.015184	0.013414	0.011834	0.010427	0.009175	0.0080638	0.0070788	0.006207	0.0054363	0.0047558	0.0041557	0.003627	0.0031619	0.0027533	0.0023947	0.0020806	0.0018059	0.0015661	0.0013571	0.0011754	0.0010177	0.00088113	0.00076311	0.00066133	0.00057371	0.00049843	0.00043383	0.00037846	0.00033104	0.00029043	0.00025565	0.00022583	0.00020023	0.00017819	0.00015916	0.00014268	0.00012835	0.00011584	0.00010487	9.521e-05	8.6671e-05	7.9098e-05	7.2366e-05	6.6369e-05	6.1021e-05	5.6251e-05	5.2e-05	4.8216e-05	4.4857e-05	4.1886e-05	3.9269e-05	3.6978e-05	3.4987e-05	3.3273e-05	3.1817e-05	3.0599e-05	2.9604e-05	2.8819e-05	2.823e-05	2.7828e-05	2.7605e-05	2.7553e-05	2.7666e-05	2.7941e-05	2.8374e-05	2.8964e-05	2.9709e-05	3.0609e-05	3.1664e-05	3.2877e-05	3.4249e-05	3.5781e-05	3.7477e-05	3.9339e-05	4.1373e-05	4.358e-05	4.5967e-05	4.854e-05	5.1304e-05	5.4267e-05	5.7439e-05	6.0831e-05	6.4453e-05	6.8322e-05	7.2454e-05	7.6866e-05	8.158e-05	8.6618e-05	9.2005e-05	9.7766e-05	0.00010393	0.00011052	0.00011757	0.00012511	0.00013315	0.00014173	0.00015086	0.00016057	0.00017088	0.0001818	0.00019335	0.00020555	0.00021842	0.00023199	0.0002463	0.00026138	0.0002773	0.00029411	0.00031189	0.00033072	0.00035069	0.00037189	0.0003944	0.0004183	0.00044364	0.00047046	0.00049877	0.00052854	0.00055971	0.00059217	0.0006258	0.00066042	0.00069584	0.00073185	0.0007682	0.00080466	0.00084099	0.00087696	0.00091236	0.00094699	0.00098069	0.0010133	0.0010448	0.0010749	0.0011038	0.0011313	0.0011574	0.0011822	0.0012056	0.0012277	0.0012486	0.0012682	0.0012866
0.0011941	0.0012238	0.0012563	0.0012917	0.00133	0.0013712	0.0014154	0.0014626	0.0015129	0.0015663	0.0016228	0.0016827	0.0017462	0.0018133	0.0018846	0.0019602	0.0020407	0.0021264	0.002218	0.0023159	0.0024208	0.0025332	0.0026539	0.0027836	0.0029228	0.0030723	0.0032328	0.0034051	0.0035899	0.0037881	0.0040005	0.0042281	0.0044719	0.0047331	0.0050129	0.0053128	0.0056344	0.0059795	0.0063501	0.0067486	0.0071777	0.0076401	0.0081393	0.0086789	0.0092631	0.0098966	0.010585	0.011333	0.012148	0.013036	0.014006	0.015065	0.016223	0.017488	0.018872	0.020386	0.022039	0.023844	0.025813	0.027957	0.030288	0.032819	0.035559	0.03852	0.041711	0.04514	0.048815	0.052741	0.05692	0.061356	0.066046	0.070986	0.076171	0.08159	0.08723	0.093076	0.099107	0.1053	0.11163	0.11806	0.12457	0.13111	0.13765	0.14414	0.15055	0.15682	0.16291	0.16877	0.17437	0.17964	0.18455	0.18906	0.19312	0.1967	0.19977	0.2023	0.20426	0.20563	0.20641	0.20658	0.20614	0.20509	0.20344	0.2012	0.19839	0.19503	0.19115	0.18678	0.18197	0.17673	0.17113	0.1652	0.15899	0.15254	0.1459	0.13912	0.13226	0.12534	0.11842	0.11153	0.10473	0.098038	0.091496	0.085132	0.078973	0.073042	0.067359	0.061938	0.056792	0.051929	0.047355	0.043071	0.039075	0.035365	0.031933	0.02877	0.025867	0.023212	0.020792	0.018592	0.016599	0.014798	0.013174	0.011714	0.010403	0.0092288	0.0081781	0.0072395	0.0064021	0.0056559	0.0049917	0.0044011	0.0038766	0.0034112	0.0029988	0.0026339	0.0023113	0.0020265	0.0017757	0.001555	0.0013612	0.0011914	0.0010428	0.00091313	0.00080014	0.00070186	0.00061653	0.00054255	0.0004785	0.00042309	0.00037516	0.00033372	0.00029786	0.00026678	0.00023981	0.00021633	0.00019584	0.00017789	0.00016211	0.00014817	0.00013582	0.00012483	0.00011502	0.00010624	9.8358e-05	9.1279e-05	8.4915e-05	7.9195e-05	7.4059e-05	6.9457e-05	6.5345e-05	6.1686e-05	5.8446e-05	5.5598e-05	5.3114e-05	5.0973e-05	4.9153e-05	4.7637e-05	4.6409e-05	4.5453e-05	4.4757e-05	4.431e-05	4.4102e-05	4.4124e-05	4.4369e-05	4.483e-05	4.5501e-05	4.6379e-05	4.7458e-05	4.8737e-05	5.0212e-05	5.1881e-05	5.3745e-05	5.5802e-05	5.8053e-05	6.0499e-05	6.3143e-05	6.5988e-05	6.904e-05	7.2303e-05	7.5787e-05	7.95e-05	8.3454e-05	8.7664e-05	9.2144e-05	9.6913e-05	0.00010199	0.0001074	0.00011316	0.0001193	0.00012585	0.00013283	0.00014027	0.00014818	0.0001566	0.00016555	0.00017504	0.00018509	0.00019571	0.00020692	0.00021872	0.00023113	0.00024415	0.00025781	0.00027213	0.00028713	0.00030285	0.00031934	0.00033666	0.00035486	0.00037403	0.00039425	0.00041558	0.00043812	0.00046191	0.00048702	0.00051348	0.00054128	0.00057041	0.00060082	0.00063242	0.00066509	0.00069868	0.00073302	0.00076793	0.0008032	0.00083861	0.00087395	0.00090901	0.00094359	0.00097751	0.0010106	0.0010427	0.0010738	0.0011037	0.0011323	0.0011596	0.0011856	0.0012103	0.0012336	0.0012556	0.0012764	0.0012958	0.001314
0.0013275	0.00136	0.0013953	0.0014337	0.0014751	0.0015196	0.0015672	0.001618	0.001672	0.0017293	0.00179	0.0018543	0.0019222	0.0019941	0.0020702	0.0021509	0.0022365	0.0023275	0.0024243	0.0025274	0.0026375	0.0027551	0.0028808	0.0030152	0.0031591	0.003313	0.0034777	0.0036539	0.0038424	0.004044	0.0042596	0.00449	0.0047363	0.0049996	0.0052811	0.0055821	0.0059041	0.0062489	0.0066181	0.007014	0.0074388	0.007895	0.0083857	0.0089139	0.0094834	0.010098	0.010762	0.011481	0.01226	0.013105	0.014022	0.015017	0.0161	0.017276	0.018555	0.019945	0.021456	0.023095	0.024872	0.026797	0.028878	0.031124	0.033542	0.036141	0.038926	0.041903	0.045076	0.048449	0.052021	0.055793	0.059762	0.063924	0.068271	0.072794	0.077482	0.08232	0.087292	0.092379	0.097558	0.1028	0.10809	0.11339	0.11867	0.1239	0.12905	0.13407	0.13894	0.14362	0.14807	0.15226	0.15615	0.15972	0.16292	0.16574	0.16815	0.17012	0.17164	0.1727	0.17328	0.17337	0.17298	0.17211	0.17075	0.16893	0.16665	0.16393	0.1608	0.15728	0.15339	0.14917	0.14464	0.13985	0.13483	0.12961	0.12423	0.11873	0.11315	0.10751	0.10186	0.096231	0.090651	0.085149	0.079754	0.07449	0.069379	0.06444	0.05969	0.055143	0.050808	0.046695	0.042808	0.039151	0.035723	0.032523	0.029548	0.026791	0.024245	0.021903	0.019754	0.017789	0.015996	0.014365	0.012884	0.011543	0.01033	0.0092355	0.008249	0.0073611	0.006563	0.0058463	0.0052035	0.0046275	0.0041119	0.0036507	0.0032387	0.0028711	0.0025434	0.0022517	0.0019924	0.0017622	0.0015582	0.0013778	0.0012185	0.001078	0.00095444	0.00084589	0.00075072	0.0006674	0.00059454	0.00053091	0.00047535	0.00042687	0.00038455	0.00034757	0.00031521	0.00028683	0.00026189	0.0002399	0.00022045	0.00020317	0.00018777	0.000174	0.00016164	0.00015052	0.00014048	0.00013141	0.00012321	0.00011578	0.00010907	0.00010301	9.7546e-05	9.2643e-05	8.8261e-05	8.4367e-05	8.0933e-05	7.7934e-05	7.5347e-05	7.3152e-05	7.1331e-05	6.9866e-05	6.8743e-05	6.7947e-05	6.7466e-05	6.7288e-05	6.7402e-05	6.7797e-05	6.8465e-05	6.9395e-05	7.0582e-05	7.2016e-05	7.3693e-05	7.5605e-05	7.7749e-05	8.0121e-05	8.2718e-05	8.5539e-05	8.8585e-05	9.1857e-05	9.5359e-05	9.9097e-05	0.00010308	0.00010731	0.00011181	0.00011659	0.00012166	0.00012705	0.00013277	0.00013885	0.00014531	0.00015217	0.00015946	0.0001672	0.00017542	0.00018413	0.00019335	0.00020311	0.0002134	0.00022425	0.00023565	0.00024763	0.00026017	0.00027329	0.00028699	0.00030129	0.0003162	0.00033174	0.00034795	0.00036487	0.00038254	0.00040103	0.0004204	0.00044071	0.00046204	0.00048444	0.00050799	0.00053271	0.00055863	0.00058577	0.0006141	0.00064357	0.00067412	0.00070563	0.00073799	0.00077106	0.00080465	0.00083859	0.0008727	0.00090679	0.00094066	0.00097414	0.001007	0.0010392	0.0010706	0.0011009	0.0011302	0.0011582	0.0011851	0.0012107	0.001235	0.001258	0.0012797	0.0013001	0.0013192	0.001337
0.0014626	0.0014976	0.0015357	0.0015769	0.0016213	0.0016688	0.0017196	0.0017737	0.0018312	0.0018922	0.0019567	0.002025	0.0020972	0.0021735	0.0022542	0.0023395	0.0024299	0.0025257	0.0026273	0.0027353	0.0028501	0.0029723	0.0031024	0.0032411	0.0033889	0.0035465	0.0037146	0.0038938	0.004085	0.0042888	0.0045062	0.004738	0.0049851	0.0052487	0.0055298	0.0058297	0.0061497	0.0064913	0.0068562	0.0072462	0.0076633	0.0081097	0.0085881	0.009101	0.0096516	0.010243	0.01088	0.011565	0.012304	0.013101	0.013961	0.014891	0.015896	0.016982	0.018156	0.019425	0.020795	0.022275	0.02387	0.025587	0.027433	0.029415	0.031538	0.033806	0.036224	0.038796	0.041522	0.044405	0.047444	0.050638	0.053982	0.057472	0.061101	0.064861	0.068742	0.07273	0.076813	0.080973	0.085194	0.089455	0.093735	0.098012	0.10226	0.10645	0.11057	0.11458	0.11845	0.12216	0.12569	0.129	0.13206	0.13486	0.13737	0.13958	0.14145	0.14298	0.14415	0.14494	0.14536	0.1454	0.14505	0.14432	0.1432	0.14172	0.13987	0.13768	0.13515	0.13231	0.12918	0.12579	0.12215	0.11829	0.11424	0.11003	0.10568	0.10123	0.096707	0.092132	0.087536	0.082945	0.078383	0.073875	0.069441	0.065102	0.060876	0.056779	0.052824	0.049023	0.045387	0.041921	0.038632	0.035522	0.032594	0.029847	0.027279	0.024886	0.022664	0.020608	0.01871	0.016963	0.015359	0.01389	0.012548	0.011323	0.010209	0.0091952	0.0082755	0.0074417	0.0066869	0.0060041	0.0053872	0.0048303	0.004328	0.0038754	0.0034679	0.0031015	0.0027723	0.0024768	0.002212	0.0019749	0.001763	0.0015739	0.0014054	0.0012555	0.0011224	0.0010044	0.00089994	0.00080765	0.0007262	0.00065439	0.00059115	0.00053547	0.00048645	0.00044327	0.0004052	0.00037158	0.00034183	0.00031544	0.00029196	0.000271	0.00025223	0.00023537	0.00022018	0.00020644	0.000194	0.0001827	0.00017243	0.00016309	0.0001546	0.00014688	0.00013988	0.00013355	0.00012785	0.00012274	0.00011819	0.00011417	0.00011065	0.00010761	0.00010504	0.00010291	0.00010121	9.992e-05	9.9022e-05	9.8502e-05	9.8348e-05	9.8545e-05	9.908e-05	9.9941e-05	0.00010112	0.00010259	0.00010437	0.00010642	0.00010875	0.00011135	0.00011421	0.00011734	0.00012072	0.00012436	0.00012826	0.00013242	0.00013686	0.00014158	0.00014659	0.0001519	0.00015754	0.00016352	0.00016985	0.00017657	0.00018369	0.00019123	0.00019921	0.00020766	0.00021659	0.00022601	0.00023595	0.00024641	0.0002574	0.00026892	0.00028098	0.00029358	0.00030672	0.0003204	0.00033463	0.0003494	0.00036475	0.00038068	0.00039721	0.0004144	0.00043227	0.00045088	0.00047028	0.00049053	0.00051169	0.0005338	0.00055693	0.00058109	0.00060632	0.00063262	0.00065997	0.00068834	0.00071765	0.00074782	0.00077876	0.00081032	0.00084238	0.00087477	0.00090732	0.00093989	0.00097228	0.0010043	0.0010359	0.0010669	0.001097	0.0011263	0.0011547	0.0011819	0.001208	0.0012329	0.0012565	0.001279	0.0013001	0.00132	0.0013386	0.001356
0.0015986	0.0016362	0.0016769	0.0017207	0.0017677	0.0018181	0.0018718	0.001929	0.0019897	0.002054	0.002122	0.0021939	0.0022699	0.0023502	0.0024349	0.0025244	0.002619	0.0027191	0.002825	0.0029371	0.003056	0.0031821	0.0033159	0.0034579	0.0036088	0.0037692	0.0039396	0.0041207	0.0043133	0.0045181	0.0047358	0.0049673	0.0052135	0.0054754	0.005754	0.0060504	0.0063658	0.0067016	0.0070592	0.0074402	0.0078463	0.0082795	0.0087418	0.0092357	0.0097637	0.010329	0.010933	0.011582	0.012277	0.013023	0.013825	0.014687	0.015613	0.016608	0.017679	0.018829	0.020065	0.021392	0.022814	0.024337	0.025966	0.027705	0.029557	0.031526	0.033614	0.035824	0.038155	0.040607	0.04318	0.045871	0.048676	0.05159	0.054607	0.057719	0.060917	0.064192	0.06753	0.07092	0.074346	0.077792	0.081243	0.084679	0.088082	0.091432	0.094708	0.097891	0.10096	0.10389	0.10667	0.10926	0.11167	0.11385	0.11581	0.11752	0.11896	0.12013	0.12102	0.12161	0.1219	0.1219	0.12158	0.12097	0.12005	0.11884	0.11735	0.11558	0.11354	0.11126	0.10875	0.10602	0.1031	0.099999	0.096744	0.093356	0.089856	0.086266	0.082609	0.078906	0.075178	0.071446	0.06773	0.064047	0.060415	0.056851	0.053368	0.04998	0.046699	0.043534	0.040494	0.037584	0.034812	0.032179	0.029687	0.027338	0.025131	0.023064	0.021134	0.019337	0.017669	0.016124	0.014696	0.013381	0.012171	0.01106	0.010041	0.0091095	0.0082579	0.0074806	0.006772	0.0061267	0.0055395	0.0050057	0.0045209	0.0040809	0.0036819	0.0033204	0.0029932	0.0026973	0.00243	0.0021889	0.0019715	0.001776	0.0016003	0.0014426	0.0013014	0.0011751	0.0010623	0.00096176	0.00087225	0.00079264	0.00072192	0.00065913	0.00060339	0.00055391	0.00050997	0.00047088	0.00043608	0.00040502	0.00037724	0.00035232	0.00032992	0.0003097	0.00029142	0.00027483	0.00025975	0.00024602	0.00023349	0.00022205	0.0002116	0.00020207	0.00019337	0.00018547	0.0001783	0.00017182	0.000166	0.00016081	0.00015622	0.0001522	0.00014872	0.00014578	0.00014334	0.0001414	0.00013992	0.0001389	0.00013832	0.00013816	0.0001384	0.00013904	0.00014005	0.00014143	0.00014315	0.00014521	0.0001476	0.00015031	0.00015333	0.00015665	0.00016027	0.00016419	0.00016841	0.00017293	0.00017776	0.0001829	0.00018837	0.00019418	0.00020034	0.00020687	0.00021377	0.00022108	0.00022881	0.00023698	0.00024559	0.00025468	0.00026424	0.0002743	0.00028486	0.00029592	0.00030749	0.00031957	0.00033215	0.00034524	0.00035883	0.00037292	0.00038752	0.00040262	0.00041824	0.00043439	0.00045109	0.00046838	0.00048628	0.00050484	0.00052411	0.00054413	0.00056494	0.0005866	0.00060913	0.00063257	0.00065694	0.00068224	0.00070844	0.00073552	0.00076343	0.00079208	0.0008214	0.00085127	0.00088158	0.00091219	0.00094295	0.00097373	0.0010044	0.0010347	0.0010647	0.0010941	0.0011228	0.0011507	0.0011778	0.0012038	0.0012289	0.0012528	0.0012756	0.0012972	0.0013176	0.0013369	0.0013549	0.0013718
0.0017355	0.0017754	0.0018185	0.0018647	0.0019142	0.0019671	0.0020234	0.0020833	0.0021468	0.002214	0.0022851	0.0023602	0.0024394	0.002523	0.0026111	0.0027041	0.0028022	0.0029058	0.0030151	0.0031305	0.0032526	0.0033816	0.003518	0.0036625	0.0038153	0.0039773	0.0041488	0.0043305	0.0045232	0.0047274	0.0049438	0.0051734	0.0054168	0.005675	0.0059489	0.0062395	0.0065479	0.0068752	0.0072226	0.0075916	0.0079837	0.0084004	0.0088435	0.009315	0.009817	0.010352	0.010922	0.01153	0.01218	0.012873	0.013615	0.014407	0.015255	0.016161	0.017131	0.018167	0.019274	0.020456	0.021716	0.023059	0.024487	0.026004	0.027611	0.02931	0.031104	0.032992	0.034975	0.037051	0.039218	0.041474	0.043816	0.046238	0.048735	0.051299	0.053925	0.056602	0.05932	0.06207	0.06484	0.067616	0.070386	0.073135	0.07585	0.078513	0.081111	0.083627	0.086044	0.088348	0.090523	0.092553	0.094424	0.096122	0.097634	0.098948	0.10005	0.10094	0.10161	0.10204	0.10224	0.10219	0.10191	0.1014	0.10064	0.099658	0.098448	0.097022	0.095388	0.093558	0.091544	0.089358	0.087015	0.084531	0.08192	0.079201	0.076388	0.0735	0.070553	0.067563	0.064548	0.061523	0.058503	0.055504	0.052538	0.049618	0.046758	0.043966	0.041252	0.038626	0.036093	0.03366	0.031331	0.029109	0.026998	0.024998	0.023109	0.02133	0.019661	0.018097	0.016638	0.015278	0.014015	0.012843	0.011758	0.010756	0.0098318	0.0089804	0.0081973	0.0074779	0.0068178	0.0062126	0.0056583	0.0051511	0.0046873	0.0042635	0.0038765	0.0035236	0.0032018	0.0029087	0.002642	0.0023996	0.0021795	0.00198	0.0017992	0.0016357	0.0014881	0.001355	0.0012351	0.0011274	0.0010306	0.00094387	0.00086616	0.00079661	0.00073438	0.00067872	0.00062892	0.00058434	0.00054437	0.0005085	0.00047625	0.00044718	0.00042093	0.00039716	0.00037559	0.00035596	0.00033807	0.00032172	0.00030677	0.00029308	0.00028053	0.00026905	0.00025853	0.00024893	0.00024017	0.00023221	0.00022501	0.00021853	0.00021274	0.0002076	0.0002031	0.0001992	0.00019589	0.00019314	0.00019094	0.00018926	0.00018809	0.00018741	0.0001872	0.00018744	0.00018813	0.00018924	0.00019075	0.00019267	0.00019496	0.00019764	0.00020067	0.00020406	0.00020781	0.0002119	0.00021633	0.00022112	0.00022626	0.00023175	0.00023761	0.00024384	0.00025045	0.00025746	0.00026488	0.00027271	0.00028098	0.0002897	0.00029887	0.00030851	0.00031862	0.0003292	0.00034027	0.00035182	0.00036385	0.00037636	0.00038933	0.00040277	0.00041667	0.00043102	0.00044583	0.0004611	0.00047684	0.00049305	0.00050975	0.00052697	0.00054474	0.00056309	0.00058205	0.00060167	0.00062197	0.000643	0.00066478	0.00068734	0.00071069	0.00073482	0.00075972	0.00078537	0.00081171	0.00083869	0.00086623	0.00089424	0.00092262	0.00095126	0.00098004	0.0010088	0.0010375	0.0010659	0.001094	0.0011216	0.0011486	0.0011749	0.0012004	0.001225	0.0012488	0.0012715	0.0012932	0.0013139	0.0013335	0.001352	0.0013694	0.0013857
0.001873	0.0019151	0.0019602	0.0020086	0.0020603	0.0021154	0.002174	0.0022361	0.002302	0.0023716	0.0024451	0.0025227	0.0026045	0.0026907	0.0027815	0.0028772	0.0029779	0.0030839	0.0031956	0.0033133	0.0034374	0.0035681	0.0037061	0.0038516	0.0040052	0.0041674	0.0043386	0.0045195	0.0047107	0.0049127	0.0051263	0.005352	0.0055908	0.0058433	0.0061104	0.0063929	0.0066918	0.007008	0.0073428	0.0076971	0.0080723	0.0084697	0.0088907	0.009337	0.0098103	0.010312	0.010846	0.011412	0.012013	0.012653	0.013334	0.014057	0.014827	0.015647	0.016519	0.017445	0.018431	0.019477	0.020587	0.021763	0.023008	0.024322	0.025709	0.027168	0.0287	0.030305	0.031982	0.03373	0.035546	0.037429	0.039374	0.041378	0.043435	0.045539	0.047684	0.049863	0.052068	0.05429	0.056519	0.058746	0.060961	0.063152	0.065308	0.067417	0.069467	0.071446	0.073343	0.075145	0.076841	0.078419	0.079868	0.081178	0.08234	0.083344	0.084184	0.084851	0.085342	0.085651	0.085775	0.085712	0.085462	0.085025	0.084404	0.083602	0.082624	0.081476	0.080164	0.078698	0.077085	0.075336	0.073462	0.071475	0.069386	0.067207	0.064952	0.062633	0.060264	0.057856	0.055423	0.052977	0.050531	0.048094	0.045679	0.043295	0.040952	0.038658	0.036421	0.034248	0.032145	0.030117	0.028168	0.0263	0.024518	0.022821	0.02121	0.019687	0.018249	0.016895	0.015624	0.014434	0.013321	0.012283	0.011316	0.010418	0.0095837	0.008811	0.0080959	0.0074348	0.0068244	0.0062613	0.0057423	0.0052644	0.0048245	0.0044201	0.0040484	0.0037071	0.0033939	0.0031067	0.0028436	0.0026028	0.0023826	0.0021815	0.001998	0.0018308	0.0016786	0.0015404	0.0014149	0.0013013	0.0011984	0.0011054	0.0010215	0.00094579	0.00087755	0.00081605	0.00076063	0.00071068	0.00066563	0.00062495	0.00058818	0.00055489	0.00052469	0.00049725	0.00047225	0.00044945	0.00042861	0.00040952	0.00039203	0.00037597	0.00036123	0.00034769	0.00033526	0.00032386	0.00031343	0.00030391	0.00029524	0.00028738	0.00028029	0.00027395	0.00026831	0.00026335	0.00025905	0.00025538	0.00025232	0.00024985	0.00024795	0.00024661	0.00024579	0.0002455	0.0002457	0.00024639	0.00024754	0.00024915	0.00025121	0.0002537	0.00025661	0.00025994	0.00026367	0.00026781	0.00027234	0.00027728	0.00028261	0.00028835	0.00029449	0.00030104	0.00030801	0.0003154	0.00032323	0.00033149	0.0003402	0.00034936	0.00035897	0.00036905	0.00037958	0.00039057	0.00040202	0.00041393	0.00042627	0.00043906	0.00045228	0.00046592	0.00047997	0.00049443	0.0005093	0.00052458	0.00054027	0.00055638	0.00057292	0.00058992	0.00060739	0.00062536	0.00064386	0.00066291	0.00068255	0.0007028	0.00072369	0.00074522	0.00076741	0.00079025	0.00081372	0.00083781	0.00086248	0.00088766	0.00091331	0.00093934	0.00096567	0.00099221	0.0010188	0.0010455	0.001072	0.0010984	0.0011244	0.00115	0.0011751	0.0011996	0.0012234	0.0012464	0.0012687	0.0012901	0.0013106	0.0013302	0.0013489	0.0013666	0.0013834	0.0013992
0.0020104	0.0020544	0.0021015	0.0021517	0.0022053	0.0022622	0.0023225	0.0023865	0.0024541	0.0025256	0.0026009	0.0026803	0.0027639	0.0028519	0.0029444	0.0030416	0.0031439	0.0032513	0.0033643	0.003483	0.0036078	0.0037391	0.0038771	0.0040224	0.0041753	0.0043362	0.0045057	0.0046842	0.0048723	0.0050704	0.0052793	0.0054995	0.0057317	0.0059765	0.0062347	0.006507	0.0067942	0.0070972	0.0074169	0.0077541	0.00811	0.0084857	0.0088823	0.0093012	0.0097437	0.010211	0.010706	0.011228	0.011782	0.012367	0.012987	0.013643	0.014337	0.015073	0.015851	0.016675	0.017545	0.018466	0.019437	0.02046	0.021538	0.022671	0.02386	0.025105	0.026406	0.027762	0.029173	0.030637	0.032152	0.033715	0.035323	0.036973	0.038659	0.040378	0.042123	0.043889	0.045669	0.047456	0.049243	0.051023	0.052786	0.054524	0.056229	0.057892	0.059503	0.061054	0.062535	0.063938	0.065254	0.066473	0.06759	0.068595	0.069481	0.070243	0.070875	0.071372	0.071729	0.071944	0.072014	0.071938	0.071716	0.071348	0.070836	0.070183	0.069392	0.068468	0.067415	0.066241	0.064951	0.063554	0.062058	0.06047	0.058801	0.057059	0.055254	0.053397	0.051495	0.049561	0.047602	0.04563	0.043652	0.041678	0.039716	0.037775	0.035861	0.033982	0.032143	0.030351	0.028611	0.026926	0.025299	0.023735	0.022236	0.020802	0.019434	0.018134	0.016901	0.015734	0.014633	0.013596	0.012621	0.011706	0.01085	0.010049	0.0093016	0.0086049	0.0079563	0.0073532	0.0067929	0.0062731	0.005791	0.0053444	0.0049309	0.0045483	0.0041946	0.0038678	0.003566	0.0032875	0.0030307	0.0027941	0.0025764	0.0023761	0.0021922	0.0020234	0.0018687	0.0017272	0.0015978	0.0014797	0.001372	0.001274	0.0011848	0.0011038	0.0010302	0.0009634	0.00090281	0.00084784	0.00079795	0.00075264	0.00071147	0.000674	0.00063987	0.00060874	0.00058029	0.00055425	0.0005304	0.0005085	0.00048839	0.00046989	0.00045288	0.00043722	0.00042281	0.00040956	0.0003974	0.00038625	0.00037605	0.00036676	0.00035833	0.00035071	0.00034387	0.00033778	0.00033242	0.00032774	0.00032374	0.00032039	0.00031766	0.00031554	0.00031401	0.00031305	0.00031265	0.00031278	0.00031345	0.00031463	0.00031631	0.00031848	0.00032113	0.00032426	0.00032784	0.00033189	0.00033639	0.00034134	0.00034673	0.00035258	0.00035887	0.00036561	0.0003728	0.00038044	0.00038853	0.00039707	0.00040607	0.00041552	0.00042543	0.00043578	0.00044658	0.00045782	0.00046949	0.00048157	0.00049407	0.00050697	0.00052027	0.00053394	0.00054798	0.00056238	0.00057715	0.00059227	0.00060776	0.0006236	0.00063983	0.00065644	0.00067346	0.0006909	0.00070878	0.00072714	0.00074597	0.00076532	0.00078518	0.00080558	0.0008265	0.00084796	0.00086992	0.00089238	0.0009153	0.00093863	0.00096233	0.00098632	0.0010105	0.0010349	0.0010594	0.0010838	0.0011082	0.0011324	0.0011563	0.0011798	0.0012029	0.0012255	0.0012476	0.001269	0.0012897	0.0013098	0.001329	0.0013476	0.0013653	0.0013822	0.0013983	0.0014137
0.0021465	0.0021921	0.0022408	0.0022926	0.0023476	0.0024059	0.0024676	0.0025328	0.0026016	0.0026742	0.0027506	0.002831	0.0029155	0.0030043	0.0030975	0.0031953	0.003298	0.0034057	0.0035186	0.0036371	0.0037613	0.0038917	0.0040285	0.004172	0.0043227	0.0044809	0.004647	0.0048215	0.0050048	0.0051975	0.0054	0.0056128	0.0058366	0.0060719	0.0063193	0.0065795	0.006853	0.0071407	0.0074433	0.0077615	0.0080962	0.0084482	0.0088186	0.0092083	0.0096185	0.01005	0.010505	0.010984	0.011488	0.01202	0.01258	0.01317	0.013792	0.014447	0.015137	0.015864	0.016628	0.017432	0.018276	0.019161	0.020089	0.021059	0.022072	0.023128	0.024226	0.025366	0.026546	0.027766	0.029022	0.030313	0.031635	0.032986	0.034362	0.035759	0.037172	0.038596	0.040027	0.041458	0.042885	0.0443	0.045697	0.047071	0.048414	0.049719	0.05098	0.052189	0.053341	0.054427	0.055443	0.056381	0.057236	0.058002	0.058675	0.059248	0.059719	0.060084	0.06034	0.060484	0.060515	0.060433	0.060236	0.059927	0.059505	0.058972	0.058333	0.057589	0.056745	0.055805	0.054775	0.05366	0.052467	0.0512	0.049869	0.048478	0.047036	0.04555	0.044028	0.042477	0.040904	0.039316	0.037721	0.036126	0.034537	0.03296	0.031401	0.029866	0.028359	0.026886	0.02545	0.024054	0.022702	0.021397	0.02014	0.018933	0.017776	0.016672	0.015619	0.014618	0.013669	0.012769	0.01192	0.011119	0.010364	0.0096552	0.0089896	0.0083657	0.0077815	0.0072353	0.006725	0.0062487	0.0058045	0.0053906	0.0050052	0.0046465	0.0043129	0.0040028	0.0037148	0.0034475	0.0031995	0.0029695	0.0027566	0.0025595	0.0023774	0.0022091	0.0020539	0.0019109	0.0017793	0.0016584	0.0015474	0.0014455	0.0013523	0.0012669	0.0011889	0.0011176	0.0010525	0.00099303	0.00093873	0.00088914	0.00084383	0.0008024	0.00076448	0.00072975	0.00069791	0.00066868	0.00064182	0.00061711	0.00059437	0.00057341	0.00055409	0.00053628	0.00051987	0.00050474	0.00049081	0.00047801	0.00046626	0.0004555	0.00044569	0.00043677	0.0004287	0.00042145	0.00041498	0.00040926	0.00040427	0.00039997	0.00039636	0.0003934	0.00039108	0.00038939	0.0003883	0.0003878	0.00038788	0.00038852	0.00038972	0.00039146	0.00039373	0.00039653	0.00039984	0.00040366	0.00040797	0.00041279	0.0004181	0.00042389	0.00043017	0.00043692	0.00044416	0.00045186	0.00046004	0.00046868	0.00047777	0.00048733	0.00049732	0.00050776	0.00051862	0.0005299	0.00054158	0.00055366	0.00056611	0.00057893	0.00059211	0.00060562	0.00061947	0.00063364	0.00064812	0.00066292	0.00067803	0.00069346	0.00070921	0.00072529	0.00074171	0.00075848	0.00077563	0.00079316	0.00081109	0.00082942	0.00084818	0.00086736	0.00088696	0.00090698	0.0009274	0.00094821	0.00096937	0.00099085	0.0010126	0.0010346	0.0010567	0.001079	0.0011013	0.0011236	0.0011458	0.0011679	0.0011897	0.0012112	0.0012324	0.0012532	0.0012735	0.0012933	0.0013125	0.0013312	0.0013493	0.0013667	0.0013835	0.0013997	0.0014152	0.0014301
0.0022792	0.0023263	0.0023762	0.0024291	0.0024851	0.0025443	0.0026068	0.0026727	0.0027421	0.0028151	0.0028918	0.0029724	0.0030569	0.0031455	0.0032384	0.0033357	0.0034376	0.0035443	0.003656	0.0037729	0.0038953	0.0040233	0.0041574	0.0042978	0.0044448	0.0045987	0.0047599	0.0049289	0.0051059	0.0052914	0.0054859	0.0056898	0.0059035	0.0061275	0.0063624	0.0066087	0.0068669	0.0071377	0.0074215	0.007719	0.008031	0.008358	0.0087009	0.0090605	0.0094375	0.0098328	0.010248	0.010682	0.011139	0.011618	0.01212	0.012647	0.013199	0.013779	0.014386	0.015022	0.015689	0.016386	0.017114	0.017875	0.018667	0.019493	0.020351	0.02124	0.022162	0.023114	0.024096	0.025105	0.026141	0.027201	0.028283	0.029383	0.0305	0.031629	0.032767	0.033911	0.035055	0.036196	0.037329	0.038449	0.039552	0.040632	0.041685	0.042704	0.043686	0.044625	0.045516	0.046354	0.047134	0.047851	0.048502	0.049083	0.049589	0.050017	0.050364	0.050629	0.050808	0.0509	0.050904	0.05082	0.050647	0.050386	0.050038	0.049604	0.049087	0.048488	0.047812	0.047061	0.046238	0.045349	0.044398	0.043389	0.042328	0.04122	0.04007	0.038884	0.037667	0.036426	0.035165	0.03389	0.032607	0.031321	0.030037	0.028759	0.027493	0.026243	0.025012	0.023805	0.022624	0.021472	0.020352	0.019267	0.018217	0.017205	0.016232	0.015298	0.014403	0.013549	0.012734	0.011959	0.011223	0.010525	0.009865	0.0092409	0.0086521	0.0080972	0.0075748	0.0070837	0.0066223	0.0061894	0.0057834	0.0054029	0.0050467	0.0047133	0.0044015	0.0041101	0.0038378	0.0035837	0.0033465	0.0031254	0.0029195	0.0027277	0.0025494	0.0023837	0.0022299	0.0020873	0.0019552	0.0018331	0.0017202	0.001616	0.0015199	0.0014314	0.00135	0.0012751	0.0012062	0.001143	0.0010849	0.0010315	0.00098246	0.0009374	0.00089599	0.00085789	0.00082283	0.00079054	0.00076078	0.00073333	0.000708	0.00068462	0.00066302	0.00064307	0.00062465	0.00060764	0.00059195	0.00057749	0.00056418	0.00055196	0.00054076	0.00053053	0.00052123	0.0005128	0.00050522	0.00049844	0.00049245	0.0004872	0.00048268	0.00047886	0.00047572	0.00047325	0.00047143	0.00047024	0.00046967	0.00046971	0.00047034	0.00047156	0.00047335	0.0004757	0.00047861	0.00048206	0.00048606	0.00049058	0.00049563	0.0005012	0.00050728	0.00051386	0.00052093	0.00052849	0.00053653	0.00054504	0.00055401	0.00056343	0.00057328	0.00058357	0.00059426	0.00060534	0.00061682	0.00062865	0.00064084	0.00065337	0.00066621	0.00067937	0.00069283	0.00070657	0.0007206	0.0007349	0.00074947	0.00076432	0.00077945	0.00079486	0.00081055	0.00082654	0.00084284	0.00085945	0.00087639	0.00089365	0.00091124	0.00092917	0.00094743	0.00096602	0.00098491	0.0010041	0.0010235	0.0010432	0.0010631	0.0010832	0.0011034	0.0011237	0.001144	0.0011642	0.0011844	0.0012045	0.0012244	0.001244	0.0012634	0.0012824	0.0013011	0.0013194	0.0013373	0.0013547	0.0013716	0.0013881	0.0014041	0.0014195	0.0014345	0.001449
0.002406	0.002454	0.0025048	0.0025585	0.0026151	0.0026747	0.0027374	0.0028034	0.0028726	0.0029453	0.0030216	0.0031015	0.0031851	0.0032726	0.0033642	0.0034599	0.00356	0.0036645	0.0037737	0.0038878	0.004007	0.0041315	0.0042615	0.0043973	0.0045392	0.0046875	0.0048424	0.0050043	0.0051736	0.0053505	0.0055355	0.0057288	0.005931	0.0061423	0.0063633	0.0065943	0.0068358	0.0070882	0.007352	0.0076278	0.0079159	0.008217	0.0085316	0.0088604	0.0092039	0.0095628	0.0099378	0.01033	0.010739	0.011167	0.011613	0.01208	0.012567	0.013076	0.013606	0.014159	0.014736	0.015336	0.01596	0.016609	0.017282	0.017979	0.0187	0.019445	0.020213	0.021004	0.021815	0.022645	0.023494	0.024359	0.025239	0.02613	0.027031	0.027939	0.028851	0.029763	0.030674	0.031578	0.032473	0.033356	0.034221	0.035066	0.035887	0.03668	0.037441	0.038166	0.038851	0.039493	0.040089	0.040634	0.041127	0.041563	0.041941	0.042257	0.042511	0.042699	0.042821	0.042875	0.042861	0.042778	0.042627	0.042407	0.04212	0.041766	0.041348	0.040867	0.040324	0.039724	0.039068	0.03836	0.037603	0.036801	0.035957	0.035075	0.034159	0.033214	0.032244	0.031252	0.030244	0.029223	0.028194	0.02716	0.026125	0.025093	0.024068	0.023053	0.022051	0.021065	0.020097	0.01915	0.018226	0.017328	0.016455	0.015611	0.014795	0.014008	0.013252	0.012527	0.011832	0.011168	0.010534	0.0099302	0.0093559	0.0088104	0.0082931	0.007803	0.0073393	0.006901	0.0064871	0.0060967	0.0057285	0.0053817	0.0050553	0.0047481	0.0044593	0.0041878	0.0039329	0.0036936	0.0034691	0.0032587	0.0030615	0.002877	0.0027043	0.0025431	0.0023925	0.002252	0.0021212	0.0019994	0.0018862	0.0017811	0.0016836	0.0015932	0.0015094	0.0014319	0.0013603	0.0012941	0.0012329	0.0011764	0.0011242	0.001076	0.0010315	0.0009904	0.00095241	0.00091729	0.00088482	0.00085479	0.000827	0.00080129	0.00077749	0.00075546	0.00073508	0.00071622	0.00069879	0.00068269	0.00066784	0.00065417	0.0006416	0.00063007	0.00061954	0.00060995	0.00060126	0.00059344	0.00058644	0.00058024	0.00057481	0.00057013	0.00056616	0.0005629	0.00056032	0.00055841	0.00055715	0.00055652	0.00055653	0.00055714	0.00055836	0.00056017	0.00056256	0.00056552	0.00056904	0.00057312	0.00057774	0.0005829	0.00058858	0.00059477	0.00060147	0.00060866	0.00061633	0.00062447	0.00063307	0.0006421	0.00065157	0.00066145	0.00067172	0.00068237	0.00069338	0.00070474	0.00071644	0.00072844	0.00074075	0.00075334	0.00076621	0.00077934	0.00079273	0.00080636	0.00082025	0.00083437	0.00084874	0.00086335	0.00087821	0.00089332	0.00090868	0.0009243	0.00094019	0.00095634	0.00097275	0.00098943	0.0010064	0.0010236	0.001041	0.0010586	0.0010765	0.0010945	0.0011127	0.001131	0.0011494	0.0011678	0.0011863	0.0012047	0.0012231	0.0012414	0.0012595	0.0012775	0.0012952	0.0013128	0.00133	0.001347	0.0013636	0.0013799	0.0013958	0.0014114	0.0014266	0.0014415	0.0014559	0.00147
0.0025236	0.0025723	0.0026235	0.0026774	0.0027341	0.0027936	0.0028559	0.0029213	0.0029899	0.0030616	0.0031366	0.003215	0.0032969	0.0033824	0.0034717	0.0035649	0.0036621	0.0037634	0.0038691	0.0039792	0.004094	0.0042137	0.0043384	0.0044685	0.004604	0.0047454	0.0048927	0.0050463	0.0052065	0.0053735	0.0055477	0.0057293	0.0059186	0.0061161	0.0063219	0.0065365	0.0067602	0.0069933	0.0072363	0.0074894	0.0077531	0.0080278	0.0083138	0.0086117	0.0089219	0.0092448	0.009581	0.0099308	0.010295	0.010674	0.011068	0.011477	0.011903	0.012346	0.012806	0.013283	0.013778	0.014291	0.014821	0.015371	0.015938	0.016522	0.017125	0.017744	0.01838	0.019031	0.019696	0.020375	0.021066	0.021767	0.022478	0.023195	0.023917	0.024642	0.025368	0.026092	0.026812	0.027525	0.028228	0.028918	0.029594	0.030251	0.030888	0.0315	0.032086	0.032642	0.033166	0.033655	0.034107	0.034518	0.034888	0.035213	0.035492	0.035723	0.035905	0.036036	0.036116	0.036143	0.036117	0.036038	0.035906	0.035722	0.035485	0.035197	0.034859	0.034472	0.034037	0.033558	0.033036	0.032473	0.031871	0.031234	0.030563	0.029863	0.029136	0.028385	0.027613	0.026823	0.026019	0.025204	0.02438	0.023552	0.02272	0.02189	0.021063	0.020242	0.019429	0.018627	0.017837	0.017062	0.016304	0.015563	0.014841	0.01414	0.01346	0.012801	0.012166	0.011553	0.010964	0.010399	0.0098562	0.0093371	0.008841	0.0083676	0.0079163	0.0074867	0.0070781	0.00669	0.0063216	0.0059723	0.0056412	0.0053277	0.0050311	0.0047505	0.0044854	0.0042349	0.0039984	0.0037752	0.0035648	0.0033665	0.0031798	0.0030041	0.0028389	0.0026837	0.002538	0.0024013	0.0022733	0.0021535	0.0020415	0.0019368	0.0018392	0.0017481	0.0016633	0.0015844	0.0015109	0.0014427	0.0013793	0.0013204	0.0012658	0.001215	0.001168	0.0011243	0.0010838	0.0010462	0.0010113	0.00097894	0.0009489	0.00092102	0.00089516	0.00087116	0.0008489	0.00082827	0.00080916	0.00079147	0.00077511	0.00076001	0.00074609	0.00073329	0.00072155	0.00071081	0.00070103	0.00069216	0.00068418	0.00067703	0.00067069	0.00066513	0.00066032	0.00065625	0.00065289	0.00065022	0.00064823	0.00064689	0.0006462	0.00064614	0.0006467	0.00064787	0.00064962	0.00065196	0.00065488	0.00065835	0.00066238	0.00066694	0.00067203	0.00067763	0.00068374	0.00069033	0.00069741	0.00070494	0.00071292	0.00072133	0.00073016	0.00073939	0.000749	0.00075897	0.0007693	0.00077995	0.00079093	0.0008022	0.00081376	0.00082559	0.00083769	0.00085003	0.00086261	0.00087543	0.00088847	0.00090174	0.00091523	0.00092894	0.00094287	0.00095701	0.00097138	0.00098597	0.0010008	0.0010158	0.001031	0.0010465	0.0010622	0.001078	0.0010941	0.0011103	0.0011266	0.0011432	0.0011598	0.0011765	0.0011933	0.0012101	0.001227	0.0012438	0.0012606	0.0012774	0.001294	0.0013105	0.0013269	0.0013431	0.0013591	0.0013749	0.0013905	0.0014058	0.0014209	0.0014357	0.0014502	0.0014645	0.0014785	0.0014922
0.0026287	0.0026775	0.0027288	0.0027824	0.0028386	0.0028974	0.0029588	0.0030231	0.0030902	0.0031602	0.0032333	0.0033095	0.0033889	0.0034716	0.0035578	0.0036475	0.0037409	0.0038381	0.0039392	0.0040444	0.0041539	0.0042677	0.0043861	0.0045093	0.0046375	0.0047707	0.0049094	0.0050536	0.0052036	0.0053597	0.005522	0.0056908	0.0058664	0.006049	0.0062389	0.0064363	0.0066414	0.0068546	0.0070762	0.0073063	0.0075453	0.0077934	0.008051	0.0083184	0.0085958	0.0088836	0.0091821	0.0094916	0.0098125	0.010145	0.010489	0.010846	0.011215	0.011597	0.011992	0.0124	0.012822	0.013256	0.013704	0.014165	0.014639	0.015126	0.015625	0.016136	0.016658	0.01719	0.017732	0.018283	0.018841	0.019406	0.019975	0.020548	0.021123	0.021698	0.022272	0.022842	0.023407	0.023965	0.024513	0.02505	0.025573	0.026081	0.02657	0.02704	0.027488	0.027912	0.028309	0.028678	0.029018	0.029326	0.0296	0.02984	0.030044	0.03021	0.030338	0.030427	0.030475	0.030484	0.030451	0.030377	0.030263	0.030108	0.029913	0.029678	0.029405	0.029095	0.028748	0.028366	0.02795	0.027503	0.027026	0.026521	0.02599	0.025436	0.02486	0.024264	0.023652	0.023025	0.022386	0.021737	0.021081	0.020419	0.019754	0.019089	0.018424	0.017763	0.017106	0.016457	0.015816	0.015184	0.014564	0.013957	0.013363	0.012784	0.01222	0.011673	0.011142	0.010628	0.010132	0.0096532	0.0091923	0.0087492	0.0083237	0.0079157	0.007525	0.0071513	0.0067941	0.0064531	0.0061279	0.0058179	0.0055227	0.0052418	0.0049746	0.0047206	0.0044794	0.0042504	0.0040331	0.0038271	0.0036318	0.0034469	0.0032719	0.0031064	0.00295	0.0028023	0.002663	0.0025317	0.0024079	0.0022915	0.0021821	0.0020794	0.0019829	0.0018925	0.0018078	0.0017286	0.0016545	0.0015852	0.0015205	0.0014601	0.0014038	0.0013512	0.0013022	0.0012566	0.001214	0.0011744	0.0011375	0.0011031	0.0010711	0.0010413	0.0010136	0.00098778	0.00096379	0.0009415	0.0009208	0.0009016	0.00088379	0.00086731	0.00085208	0.00083802	0.00082508	0.00081321	0.00080234	0.00079243	0.00078344	0.00077533	0.00076807	0.00076162	0.00075595	0.00075103	0.00074685	0.00074338	0.0007406	0.00073849	0.00073704	0.00073622	0.00073603	0.00073645	0.00073746	0.00073905	0.00074122	0.00074394	0.00074721	0.00075101	0.00075532	0.00076015	0.00076547	0.00077127	0.00077753	0.00078424	0.00079139	0.00079896	0.00080693	0.0008153	0.00082403	0.00083312	0.00084254	0.00085229	0.00086235	0.00087271	0.00088334	0.00089424	0.0009054	0.0009168	0.00092843	0.0009403	0.00095238	0.00096468	0.0009772	0.00098992	0.0010028	0.001016	0.0010293	0.0010428	0.0010565	0.0010704	0.0010845	0.0010988	0.0011132	0.0011278	0.0011426	0.0011575	0.0011726	0.0011877	0.001203	0.0012183	0.0012337	0.0012491	0.0012646	0.0012801	0.0012955	0.0013109	0.0013263	0.0013416	0.0013568	0.0013718	0.0013868	0.0014016	0.0014162	0.0014307	0.001445	0.0014592	0.0014731	0.0014868	0.0015004	0.0015137
