7.8373e-12	1.1632e-11	1.654e-11	2.2558e-11	2.9536e-11	3.7162e-11	4.4962e-11	5.2343e-11	5.8662e-11	6.3316e-11	6.583e-11	6.5941e-11	6.3637e-11	5.916e-11	5.2968e-11	4.5656e-11	3.7869e-11	3.0206e-11	2.3153e-11	1.704e-11	1.2031e-11	8.1538e-12	5.4164e-12	4.3928e-12	9.4065e-12	4.4156e-11	2.182e-10	9.7097e-10	3.8453e-09	1.3607e-08	4.3268e-08	1.2434e-07	3.2474e-07	7.7515e-07	1.7003e-06	3.4457e-06	6.4853e-06	1.1395e-05	1.8783e-05	2.9187e-05	4.2959e-05	6.016e-05	8.0511e-05	0.0001034	0.00012795	0.00015315	0.00017795	0.00020141	0.0002228	0.00024161	0.00025758	0.00027067	0.00028102	0.00028892	0.00029471	0.00029878	0.00030151	0.00030323	0.00030426	0.00030482	0.00030508	0.00030514	0.00030501	0.00030467	0.00030397	0.00030273	0.00030069	0.00029754	0.00029292	0.00028643	0.00027772	0.00026644	0.00025236	0.00023539	0.00021564	0.00019346	0.00016944	0.00014439	0.00011929	9.521e-05	7.3115e-05	5.3805e-05	3.7782e-05	2.5203e-05	1.5898e-05	9.439e-06	5.2489e-06	2.7211e-06	1.31e-06	5.8648e-07	2.5065e-07	1.1724e-07	8.7181e-08	1.2096e-07	2.2214e-07	4.3467e-07	8.5364e-07	1.6458e-06	3.0734e-06	5.5114e-06	9.4463e-06	1.5448e-05	2.4112e-05	3.598e-05	5.1455e-05	7.0742e-05	9.3816e-05	0.00012045	0.00015026	0.00018281	0.00021763	0.00025432	0.00029248	0.00033175	0.0003717	0.00041187	0.00045171	0.00049069	0.00052834	0.0005644	0.00059894	0.00063254	0.00066642	0.00070261	0.00074408	0.00079481	0.00085977	0.00094479	0.0010563	0.0012012	0.0013863	0.0016186	0.0019055	0.002255	0.0026768	0.0031829	0.0037888	0.0045147	0.0053867	0.0064394	0.0077184	0.0092856	0.011225	0.013649	0.016711	0.020614	0.025619	0.032058	0.040345	0.050981	0.06456	0.081772	0.10339	0.13027	0.16329	0.20336	0.25132	0.3079	0.37366	0.44891	0.53365	0.62752	0.72982	0.83945	0.95498	1.0747	1.1967	1.3189	1.4391	1.5554	1.6657	1.7683	1.8617	1.9445	2.0157	2.0746	2.1204	2.153	2.1719	2.1772	2.1689	2.1472	2.1122	2.0643	2.004	1.9318	1.8485	1.7551	1.6527	1.5426	1.4265	1.306	1.183	1.0597	0.93792	0.81972	0.70691	0.6011	0.50361	0.41541	0.33711	0.26893	0.21073	0.16206	0.12221	0.090301	0.065314	0.046204	0.031939	0.021555	0.01419	0.0091037	0.0056872	0.0034567	0.0020424	0.0011722	0.00065319	0.00035317	0.0001852	9.4148e-05	4.6354e-05	2.2066e-05	1.0127e-05	4.4602e-06	1.8736e-06	7.4483e-07	2.7778e-07	9.6282e-08	3.0728e-08	8.9482e-09	2.3573e-09	5.5726e-10	1.1731e-10	2.1835e-11	3.5681e-12	5.0852e-13	6.2795e-14	6.676e-15	6.072e-16	4.6954e-17	3.0681e-18	1.6837e-19	7.7132e-21	2.9322e-22	9.1956e-24	2.3651e-25	4.9606e-27	8.4364e-29	1.157e-30	1.2726e-32	1.1167e-34	7.7768e-37	4.2769e-39	1.8484e-41	6.2478e-44	1.6443e-46	3.3544e-49	5.2826e-52	6.3962e-55	5.932e-58	4.1988e-61	2.2606e-64	9.2293e-68	2.8489e-71	6.6312e-75	1.1611e-78	1.5262e-82	1.5029e-86	1.1071e-90	6.0918e-95	2.5014e-99	7.6583e-104	1.7474e-108	2.971e-113	3.7643e-118	3.5567e-123	2.5199e-128	1.4615e-133	1.7105e-138	8.5702e-143	5.0562e-147	2.5866e-151	1.1704e-155
1.2313e-12	1.8665e-12	2.7051e-12	3.7524e-12	4.9868e-12	6.3547e-12	7.7707e-12	9.1239e-12	1.0291e-11	1.1156e-11	1.1624e-11	1.1645e-11	1.1215e-11	1.0384e-11	9.239e-12	7.8975e-12	6.4824e-12	5.1061e-12	3.8569e-12	2.7915e-12	1.9356e-12	1.3001e-12	9.7943e-13	1.7722e-12	8.7228e-12	4.8584e-11	2.4386e-10	1.0832e-09	4.2737e-09	1.5061e-08	4.7689e-08	1.3645e-07	3.5482e-07	8.4318e-07	1.8413e-06	3.7147e-06	6.9604e-06	1.2175e-05	1.9981e-05	3.0914e-05	4.5307e-05	6.3183e-05	8.4212e-05	0.00010773	0.0001328	0.00015836	0.00018336	0.00020685	0.0002281	0.00024662	0.0002622	0.00027482	0.00028467	0.00029206	0.00029737	0.00030098	0.00030331	0.00030471	0.00030548	0.00030585	0.00030601	0.00030604	0.00030597	0.00030576	0.00030527	0.00030431	0.00030263	0.00029989	0.00029573	0.00028975	0.00028155	0.00027076	0.00025712	0.00024052	0.00022101	0.00019891	0.0001748	0.00014949	0.00012397	9.9328e-05	7.6584e-05	5.659e-05	3.9905e-05	2.6735e-05	1.6938e-05	1.0101e-05	5.6416e-06	2.9367e-06	1.4179e-06	6.3296e-07	2.6265e-07	1.0689e-07	5.5458e-08	5.882e-08	1.0818e-07	2.2856e-07	4.8479e-07	9.9789e-07	1.9667e-06	3.6872e-06	6.5591e-06	1.1071e-05	1.7758e-05	2.7139e-05	3.9639e-05	5.5528e-05	7.488e-05	9.7578e-05	0.00012335	0.00015184	0.00018266	0.00021544	0.00024984	0.00028552	0.00032215	0.0003593	0.00039652	0.00043334	0.00046933	0.00050422	0.00053803	0.00057122	0.00060486	0.00064082	0.00068187	0.00073189	0.00079576	0.00087936	0.00098923	0.0011324	0.0013159	0.0015472	0.0018339	0.0021845	0.0026091	0.0031206	0.0037354	0.0044754	0.0053691	0.0064546	0.0077829	0.0094233	0.01147	0.01405	0.017335	0.021551	0.026991	0.034027	0.04312	0.05483	0.069824	0.088872	0.11284	0.14269	0.1794	0.22397	0.27734	0.3403	0.41346	0.4971	0.5912	0.69529	0.80854	0.92966	1.057	1.1887	1.3225	1.4562	1.5874	1.7139	1.8336	1.9446	2.0453	2.1344	2.2107	2.2736	2.3225	2.357	2.3769	2.3823	2.3731	2.3496	2.3119	2.2605	2.1957	2.1181	2.0285	1.9279	1.8173	1.6983	1.5724	1.4415	1.3076	1.1729	1.0397	0.90995	0.78586	0.66919	0.56145	0.46376	0.37684	0.301	0.23613	0.18179	0.13722	0.10147	0.073443	0.05198	0.035942	0.02426	0.015969	0.010243	0.0063959	0.0038852	0.002294	0.0013157	0.0007326	0.0003959	0.00020759	0.00010559	5.2063e-05	2.485e-05	1.145e-05	5.0694e-06	2.1428e-06	8.5779e-07	3.2223e-07	1.125e-07	3.616e-08	1.0601e-08	2.8108e-09	6.6848e-10	1.4153e-10	2.6485e-11	4.3504e-12	6.2308e-13	7.7306e-14	8.256e-15	7.5418e-16	5.8564e-17	3.8419e-18	2.1163e-19	9.7291e-21	3.7107e-22	1.1672e-23	3.0101e-25	6.3282e-27	1.0784e-28	1.4813e-30	1.6313e-32	1.4326e-34	9.9802e-37	5.4878e-39	2.3701e-41	8.0019e-44	2.1022e-46	4.2787e-49	6.7184e-52	8.106e-55	7.4863e-58	5.2734e-61	2.8236e-64	1.1457e-67	3.512e-71	8.1126e-75	1.4087e-78	1.8347e-82	1.789e-86	1.3039e-90	7.0931e-95	2.8771e-99	8.6946e-104	1.9566e-108	3.2782e-113	4.0895e-118	3.8002e-123	2.6324e-128	1.3606e-133	5.2573e-139	1.5353e-144	4.1512e-150	4.8194e-155	4.0444e-158
1.6816e-13	2.6046e-13	3.8489e-13	5.4321e-13	7.3292e-13	9.4619e-13	1.1696e-12	1.3853e-12	1.5728e-12	1.7125e-12	1.7884e-12	1.7918e-12	1.7221e-12	1.5877e-12	1.4037e-12	1.1898e-12	9.6622e-13	7.514e-13	5.5917e-13	3.9799e-13	2.7238e-13	1.9613e-13	2.9163e-13	1.4527e-12	9.1577e-12	5.2256e-11	2.6242e-10	1.1634e-09	4.5797e-09	1.6101e-08	5.085e-08	1.4511e-07	3.763e-07	8.9174e-07	1.9418e-06	3.9063e-06	7.2982e-06	1.2729e-05	2.0829e-05	3.2135e-05	4.6963e-05	6.531e-05	8.681e-05	0.00011075	0.00013618	0.00016199	0.00018712	0.00021061	0.00023174	0.00025005	0.00026534	0.00027763	0.00028713	0.00029416	0.00029911	0.00030242	0.00030447	0.00030564	0.00030622	0.00030647	0.00030655	0.00030657	0.00030654	0.00030641	0.00030607	0.00030531	0.00030387	0.00030143	0.0002976	0.00029197	0.00028413	0.00027369	0.00026038	0.00024403	0.0002247	0.00020268	0.00017853	0.00015305	0.00012724	0.00010221	7.902e-05	5.8551e-05	4.1404e-05	2.7818e-05	1.7675e-05	1.0571e-05	5.9211e-06	3.0908e-06	1.4959e-06	6.6811e-07	2.7484e-07	1.0585e-07	4.3507e-08	3.1817e-08	5.3844e-08	1.2141e-07	2.7694e-07	6.0551e-07	1.2533e-06	2.447e-06	4.5048e-06	7.8324e-06	1.2896e-05	2.0172e-05	3.0085e-05	4.2944e-05	5.8902e-05	7.7937e-05	9.9883e-05	0.00012447	0.00015137	0.00018028	0.00021091	0.00024296	0.00027615	0.00031016	0.00034464	0.00037921	0.00041352	0.00044735	0.0004807	0.00051396	0.00054804	0.00058461	0.00062622	0.00067651	0.00074021	0.00082307	0.00093167	0.0010731	0.0012548	0.0014844	0.0017699	0.0021206	0.0025472	0.0030634	0.0036872	0.0044419	0.0053589	0.0064803	0.0078626	0.0095834	0.011748	0.014498	0.018027	0.022584	0.028497	0.036179	0.046143	0.059012	0.075528	0.096551	0.12305	0.15607	0.19673	0.24612	0.30526	0.37501	0.456	0.54851	0.65245	0.76724	0.89189	1.0249	1.1645	1.3085	1.4544	1.5997	1.7419	1.8787	2.0076	2.1269	2.2347	2.3298	2.4111	2.4778	2.5294	2.5657	2.5865	2.5918	2.5817	2.5563	2.516	2.4611	2.3918	2.309	2.2132	2.1054	1.9868	1.8589	1.7233	1.5819	1.437	1.2909	1.1459	1.0044	0.86875	0.74088	0.62252	0.51496	0.41905	0.33518	0.26331	0.20297	0.1534	0.11356	0.082276	0.058283	0.040331	0.027238	0.017938	0.01151	0.0071892	0.0043678	0.0025792	0.0014794	0.00082381	0.00044524	0.00023352	0.00011883	5.8647e-05	2.8033e-05	1.2942e-05	5.7454e-06	2.4363e-06	9.7879e-07	3.6911e-07	1.2938e-07	4.1748e-08	1.2287e-08	3.2695e-09	7.803e-10	1.6576e-10	3.1116e-11	5.1264e-12	7.3631e-13	9.1603e-14	9.808e-15	8.9814e-16	6.9902e-17	4.5955e-18	2.5364e-19	1.1682e-20	4.4625e-22	1.4056e-23	3.6293e-25	7.6372e-27	1.3023e-28	1.7896e-30	1.9709e-32	1.7304e-34	1.2048e-36	6.6181e-39	2.8544e-41	9.6196e-44	2.5216e-46	5.1188e-49	8.0125e-52	9.6326e-55	8.8598e-58	6.2122e-61	3.3092e-64	1.3351e-67	4.0671e-71	9.331e-75	1.6083e-78	2.078e-82	2.0089e-86	1.4507e-90	7.8143e-95	3.1366e-99	9.374e-104	2.0848e-108	3.45e-113	4.2483e-118	3.8947e-123	2.6607e-128	1.3568e-133	5.1821e-139	1.5085e-144	1.4763e-148	1.3554e-150	1.1836e-152
1.9843e-14	3.1418e-14	4.7354e-14	6.8019e-14	9.3199e-14	1.2192e-13	1.5239e-13	1.821e-13	2.0813e-13	2.2762e-13	2.3827e-13	2.3874e-13	2.2898e-13	2.102e-13	1.8465e-13	1.5515e-13	1.2464e-13	9.5674e-14	7.0132e-14	4.9201e-14	3.4769e-14	4.2288e-14	2.0223e-13	1.445e-12	9.4466e-12	5.4066e-11	2.7151e-10	1.2032e-09	4.7332e-09	1.6628e-08	5.247e-08	1.4959e-07	3.8751e-07	9.1728e-07	1.995e-06	4.0083e-06	7.4791e-06	1.3027e-05	2.1288e-05	3.2798e-05	4.7865e-05	6.6473e-05	8.8234e-05	0.00011242	0.00013804	0.000164	0.0001892	0.00021269	0.00023377	0.00025197	0.0002671	0.00027921	0.00028851	0.00029534	0.0003001	0.00030323	0.00030513	0.00030617	0.00030665	0.00030683	0.00030687	0.00030688	0.00030687	0.00030679	0.00030653	0.00030588	0.00030459	0.0003023	0.00029865	0.00029322	0.00028557	0.00027533	0.00026219	0.00024599	0.00022675	0.00020477	0.00018059	0.00015501	0.00012904	0.0001038	8.0355e-05	5.9622e-05	4.222e-05	2.8405e-05	1.8073e-05	1.0823e-05	6.0706e-06	3.1728e-06	1.5373e-06	6.8693e-07	2.8187e-07	1.0646e-07	3.9131e-08	2.0296e-08	2.8075e-08	6.5483e-08	1.5894e-07	3.6633e-07	7.9185e-07	1.6035e-06	3.0472e-06	5.4491e-06	9.2012e-06	1.4726e-05	2.2427e-05	3.2631e-05	4.5545e-05	6.1228e-05	7.9603e-05	0.00010049	0.00012363	0.00014878	0.00017568	0.00020412	0.00023386	0.00026469	0.00029635	0.00032861	0.00036122	0.00039404	0.0004271	0.00046073	0.0004957	0.00053347	0.00057632	0.0006276	0.00069177	0.00077438	0.00088194	0.0010216	0.001201	0.0014283	0.001712	0.002062	0.00249	0.0030109	0.003644	0.0044148	0.0053577	0.006519	0.0079615	0.0097715	0.012066	0.015004	0.018799	0.023728	0.030155	0.038535	0.049437	0.063552	0.081703	0.10484	0.13403	0.17045	0.21531	0.2698	0.33504	0.41195	0.50117	0.60295	0.71712	0.84301	0.97942	1.1247	1.2767	1.4331	1.5912	1.7481	1.9013	2.0481	2.1862	2.3134	2.4281	2.5289	2.6148	2.685	2.7392	2.7771	2.7985	2.8036	2.7925	2.7654	2.7225	2.6641	2.5906	2.5026	2.4008	2.2861	2.1597	2.023	1.8778	1.7261	1.5701	1.4125	1.2557	1.1024	0.95493	0.81565	0.68641	0.56869	0.46348	0.37129	0.29211	0.22551	0.17068	0.12653	0.091794	0.065107	0.045106	0.030497	0.020105	0.012912	0.0080726	0.0049088	0.0029011	0.0016654	0.00092808	0.00050194	0.0002634	0.00013409	6.6196e-05	3.1646e-05	1.4613e-05	6.4883e-06	2.7524e-06	1.1065e-06	4.1763e-07	1.4655e-07	4.7347e-08	1.3953e-08	3.7182e-09	8.8864e-10	1.8903e-10	3.5531e-11	5.8607e-12	8.427e-13	1.0494e-13	1.1245e-14	1.0305e-15	8.025e-17	5.2782e-18	2.914e-19	1.3423e-20	5.1277e-22	1.6149e-23	4.1681e-25	8.7663e-27	1.4938e-28	2.0508e-30	2.256e-32	1.9779e-34	1.3748e-36	7.5378e-39	3.244e-41	1.0906e-43	2.8508e-46	5.7691e-49	8.9996e-52	1.0779e-54	9.8729e-58	6.8914e-61	3.6532e-64	1.4661e-67	4.4409e-71	1.0127e-74	1.7341e-78	2.225e-82	2.1352e-86	1.5299e-90	8.1737e-95	3.2531e-99	9.6393e-104	2.1268e-108	3.4998e-113	4.3175e-118	4.0536e-123	3.0175e-128	1.9575e-133	1.4896e-138	2.6353e-141	2.8804e-143	2.9366e-145	2.7851e-147
2.0112e-15	3.2561e-15	5.0073e-15	7.3223e-15	1.0191e-14	1.3513e-14	1.7081e-14	2.0595e-14	2.37e-14	2.6038e-14	2.7319e-14	2.7376e-14	2.6201e-14	2.3948e-14	2.0898e-14	1.7406e-14	1.3829e-14	1.0476e-14	7.5717e-15	5.3636e-15	5.4566e-15	2.337e-14	1.8874e-13	1.4243e-12	9.3651e-12	5.3698e-11	2.7004e-10	1.1981e-09	4.7185e-09	1.6592e-08	5.2402e-08	1.4951e-07	3.8755e-07	9.1787e-07	1.9972e-06	4.0143e-06	7.4925e-06	1.3054e-05	2.1335e-05	3.2874e-05	4.798e-05	6.6634e-05	8.8447e-05	0.00011269	0.00013836	0.00016436	0.00018959	0.00021311	0.0002342	0.0002524	0.00026752	0.0002796	0.00028888	0.00029568	0.00030041	0.00030351	0.00030538	0.0003064	0.00030687	0.00030703	0.00030707	0.00030707	0.00030706	0.000307	0.00030675	0.00030612	0.00030485	0.00030259	0.00029897	0.00029357	0.00028595	0.00027574	0.00026261	0.00024642	0.00022718	0.00020519	0.00018098	0.00015536	0.00012935	0.00010405	8.055e-05	5.9767e-05	4.232e-05	2.847e-05	1.8112e-05	1.0845e-05	6.0809e-06	3.1771e-06	1.5387e-06	6.8709e-07	2.8146e-07	1.055e-07	3.6977e-08	1.5152e-08	1.5581e-08	3.5725e-08	9.0967e-08	2.1929e-07	4.9255e-07	1.0314e-06	2.0193e-06	3.7103e-06	6.4231e-06	1.0519e-05	1.6364e-05	2.4283e-05	3.4512e-05	4.7175e-05	6.2272e-05	7.9698e-05	9.9281e-05	0.00012082	0.00014412	0.00016901	0.00019534	0.00022298	0.00025181	0.00028171	0.00031258	0.00034439	0.0003772	0.0004113	0.00044737	0.00048663	0.00053108	0.00058373	0.00064871	0.00073134	0.00083796	0.00097577	0.0011527	0.0013772	0.0016585	0.0020075	0.0024369	0.0029628	0.0036064	0.0043955	0.0053678	0.0065742	0.0080844	0.0099941	0.012433	0.015578	0.019664	0.024999	0.031981	0.041115	0.053027	0.068477	0.088373	0.11376	0.14582	0.18584	0.23512	0.29499	0.36663	0.451	0.54876	0.66014	0.78486	0.9221	1.0705	1.2282	1.3927	1.5616	1.7317	1.9002	2.0642	2.2208	2.3676	2.5024	2.6236	2.7297	2.8198	2.8932	2.9496	2.9888	3.0107	3.0156	3.0034	2.9745	2.9291	2.8675	2.79	2.6971	2.5896	2.4682	2.3342	2.189	2.0344	1.8725	1.7058	1.5367	1.3682	1.2029	1.0437	0.89285	0.75257	0.62451	0.5098	0.40906	0.32236	0.24927	0.18897	0.14032	0.10196	0.072433	0.050261	0.034035	0.022472	0.014455	0.0090506	0.0055119	0.0032625	0.0018756	0.0010467	0.00056672	0.00029763	0.00015157	7.4798e-05	3.5725e-05	1.6471e-05	7.2996e-06	3.0903e-06	1.2399e-06	4.6719e-07	1.6372e-07	5.2846e-08	1.5564e-08	4.1461e-09	9.9071e-10	2.1072e-10	3.9605e-11	6.532e-12	9.3905e-13	1.169e-13	1.2522e-14	1.1469e-15	8.925e-17	5.8651e-18	3.2349e-19	1.4884e-20	5.6783e-22	1.7857e-23	4.6017e-25	9.6613e-27	1.6432e-28	2.2513e-30	2.471e-32	2.1613e-34	1.4985e-36	8.1939e-39	3.5161e-41	1.1784e-43	3.0705e-46	6.1923e-49	9.6245e-52	1.1482e-54	1.0475e-57	7.2802e-61	3.8419e-64	1.5345e-67	4.6254e-71	1.0494e-74	1.7877e-78	2.2825e-82	2.1813e-86	1.5601e-90	8.3725e-95	3.4026e-99	1.0742e-103	2.7977e-108	6.6642e-113	1.5782e-117	3.6053e-122	7.2111e-127	1.3873e-131	2.9232e-134	3.7242e-136	4.4353e-138	4.9145e-140	5.0691e-142
1.7402e-16	2.8818e-16	4.5231e-16	6.7354e-16	9.5251e-16	1.2803e-15	1.6369e-15	1.9918e-15	2.308e-15	2.5474e-15	2.6791e-15	2.6849e-15	2.5642e-15	2.3333e-15	2.0226e-15	1.6696e-15	1.3118e-15	9.8102e-16	7.0752e-16	6.2895e-16	2.2345e-15	2.0178e-14	1.7705e-13	1.3482e-12	8.8977e-12	5.1183e-11	2.5818e-10	1.1489e-09	4.5372e-09	1.5997e-08	5.0654e-08	1.4487e-07	3.7641e-07	8.9348e-07	1.9483e-06	3.9238e-06	7.3376e-06	1.2807e-05	2.0968e-05	3.2361e-05	4.7302e-05	6.5788e-05	8.7443e-05	0.00011155	0.00013713	0.00016307	0.0001883	0.00021187	0.00023303	0.00025134	0.0002666	0.00027883	0.00028825	0.00029519	0.00030006	0.00030327	0.00030525	0.00030635	0.00030688	0.00030709	0.00030715	0.00030715	0.00030714	0.00030704	0.00030674	0.00030604	0.00030468	0.00030232	0.00029858	0.00029303	0.00028527	0.00027491	0.00026165	0.00024532	0.00022599	0.00020392	0.00017968	0.00015409	0.00012814	0.00010295	7.9598e-05	5.8979e-05	4.1701e-05	2.801e-05	1.779e-05	1.0633e-05	5.9513e-06	3.1033e-06	1.4999e-06	6.6828e-07	2.7305e-07	1.0186e-07	3.4941e-08	1.2471e-08	9.2474e-09	1.952e-08	5.1355e-08	1.2869e-07	2.9929e-07	6.4676e-07	1.3034e-06	2.4601e-06	4.3667e-06	7.3208e-06	1.1641e-05	1.7631e-05	2.5539e-05	3.553e-05	4.7664e-05	6.1911e-05	7.8165e-05	9.6287e-05	0.00011614	0.0001376	0.0001606	0.0001851	0.00021111	0.00023864	0.00026772	0.00029844	0.00033093	0.00036545	0.00040257	0.00044332	0.00048941	0.0005435	0.00060938	0.00069207	0.00079775	0.00093366	0.0011079	0.0013295	0.0016085	0.0019566	0.0023878	0.0029199	0.0035759	0.0043863	0.0053924	0.0066503	0.0082372	0.010259	0.012859	0.016232	0.020636	0.026412	0.033996	0.04394	0.056932	0.073807	0.095558	0.12333	0.15842	0.20221	0.25613	0.3216	0.39987	0.49196	0.59851	0.7197	0.85515	1.0039	1.1644	1.3344	1.5115	1.6926	1.8747	2.0544	2.2287	2.3947	2.5498	2.6918	2.8189	2.9299	3.0238	3.1	3.1583	3.1985	3.2208	3.2252	3.212	3.1814	3.1337	3.069	2.9877	2.8903	2.7773	2.6497	2.5085	2.3551	2.1915	2.0198	1.8425	1.6623	1.4822	1.3052	1.1341	0.97177	0.82042	0.68192	0.5576	0.44818	0.35379	0.27406	0.20814	0.15484	0.11272	0.08023	0.05578	0.037847	0.025039	0.016139	0.010126	0.0061801	0.0036659	0.0021119	0.0011808	0.00064032	0.00033663	0.00017147	8.4556e-05	4.0312e-05	1.8533e-05	8.1836e-06	3.4504e-06	1.3787e-06	5.1752e-07	1.8076e-07	5.8188e-08	1.7101e-08	4.548e-09	1.0854e-09	2.3063e-10	4.3312e-11	7.138e-12	1.0254e-12	1.2755e-13	1.365e-14	1.2489e-15	9.7082e-17	6.3716e-18	3.5093e-19	1.6121e-20	6.1401e-22	1.9274e-23	4.9574e-25	1.0387e-26	1.7628e-28	2.4097e-30	2.6388e-32	2.3024e-34	1.5923e-36	8.6847e-39	3.7169e-41	1.2424e-43	3.2283e-46	6.4925e-49	1.0063e-51	1.1973e-54	1.0893e-57	7.5522e-61	3.9776e-64	1.5872e-67	4.7909e-71	1.0941e-74	1.899e-78	2.5405e-82	2.7112e-86	2.4656e-90	2.0751e-94	1.6692e-98	1.2194e-102	7.5111e-107	3.7178e-111	1.4467e-115	4.3904e-120	1.1573e-124	1.9702e-127	2.9186e-129	4.0611e-131	5.2591e-133	6.3411e-135	7.1222e-137
1.2777e-17	2.1651e-17	3.4691e-17	5.2619e-17	7.5623e-17	1.0307e-16	1.333e-16	1.6372e-16	1.9104e-16	2.1185e-16	2.2333e-16	2.2384e-16	2.1331e-16	1.9324e-16	1.6637e-16	1.361e-16	1.0575e-16	7.8506e-17	6.4245e-17	1.7713e-16	1.7466e-15	1.7935e-14	1.5943e-13	1.2208e-12	8.0978e-12	4.6809e-11	2.3724e-10	1.0606e-09	4.2075e-09	1.49e-08	4.7382e-08	1.3608e-07	3.5499e-07	8.4592e-07	1.8515e-06	3.7426e-06	7.0234e-06	1.23e-05	2.0204e-05	3.1279e-05	4.5858e-05	6.3961e-05	8.5247e-05	0.00010903	0.00013436	0.00016015	0.00018533	0.00020894	0.00023025	0.00024878	0.00026431	0.00027684	0.00028657	0.00029383	0.00029899	0.00030246	0.00030466	0.00030595	0.00030663	0.00030694	0.00030706	0.00030708	0.00030703	0.00030686	0.00030644	0.00030559	0.00030402	0.00030142	0.0002974	0.00029156	0.00028349	0.00027282	0.00025926	0.00024268	0.00022315	0.00020097	0.00017671	0.0001512	0.00012545	0.00010054	7.7527e-05	5.7286e-05	4.0387e-05	2.7045e-05	1.7123e-05	1.02e-05	5.6896e-06	2.9563e-06	1.4235e-06	6.3185e-07	2.5712e-07	9.5447e-08	3.2338e-08	1.0677e-08	5.8558e-09	1.0571e-08	2.8277e-08	7.3342e-08	1.7629e-07	3.9283e-07	8.1481e-07	1.5801e-06	2.8775e-06	4.942e-06	8.0395e-06	1.244e-05	1.8385e-05	2.6059e-05	3.5568e-05	4.6939e-05	6.0132e-05	7.5066e-05	9.166e-05	0.00010986	0.00012966	0.00015112	0.00017436	0.00019952	0.00022678	0.00025632	0.00028832	0.00032307	0.00036103	0.00040303	0.00045054	0.00050588	0.00057253	0.00065519	0.00075991	0.00089393	0.0010657	0.0012846	0.0015617	0.0019097	0.002344	0.0028841	0.0035552	0.0043908	0.0054361	0.0067531	0.0084266	0.010573	0.013351	0.016975	0.021728	0.027981	0.036212	0.047025	0.061169	0.079556	0.10327	0.13355	0.1718	0.21952	0.27826	0.34951	0.4346	0.53457	0.65005	0.78117	0.92741	1.0877	1.2601	1.4424	1.6318	1.8249	2.0184	2.2089	2.3931	2.5679	2.7307	2.8793	3.0118	3.1272	3.2244	3.303	3.3628	3.4038	3.4262	3.4302	3.4159	3.3838	3.3338	3.2663	3.1816	3.08	2.962	2.8286	2.6806	2.5196	2.3475	2.1664	1.9789	1.7879	1.5965	1.4079	1.2253	1.0516	0.88924	0.74035	0.60641	0.48826	0.38613	0.29967	0.22803	0.16997	0.124	0.08845	0.061634	0.041918	0.0278	0.017964	0.011301	0.0069156	0.0041131	0.0023757	0.0013315	0.00072348	0.00038083	0.00019404	9.5592e-05	4.5464e-05	2.0823e-05	9.1494e-06	3.836e-06	1.5239e-06	5.6884e-07	1.9771e-07	6.3384e-08	1.8568e-08	4.9258e-09	1.1734e-09	2.4901e-10	4.6721e-11	7.695e-12	1.1049e-12	1.3739e-13	1.47e-14	1.3446e-15	1.0449e-16	6.8556e-18	3.7746e-19	1.7334e-20	6.5997e-22	2.071e-23	5.3247e-25	1.1153e-26	1.8923e-28	2.5864e-30	2.832e-32	2.4712e-34	1.7095e-36	9.3276e-39	3.995e-41	1.3368e-43	3.4794e-46	7.0145e-49	1.0913e-51	1.3062e-54	1.2008e-57	8.4843e-61	4.6348e-64	1.9898e-67	6.9511e-71	2.0906e-74	5.727e-78	1.4445e-81	3.2126e-85	5.9591e-89	8.8774e-93	1.0418e-96	9.5488e-101	6.8111e-105	3.7755e-109	1.6257e-113	5.8579e-118	8.0556e-121	1.3824e-122	2.2473e-124	3.4014e-126	4.7949e-128	6.298e-130	7.7117e-132
7.9131e-19	1.3724e-18	2.2455e-18	3.47e-18	5.0692e-18	7.0063e-18	9.1688e-18	1.1367e-17	1.3358e-17	1.4884e-17	1.5729e-17	1.5766e-17	1.4991e-17	1.3519e-17	1.156e-17	9.3704e-18	7.2177e-18	5.7021e-18	1.1756e-17	1.2113e-16	1.4637e-15	1.5308e-14	1.3709e-13	1.0569e-12	7.057e-12	4.1061e-11	2.0945e-10	9.423e-10	3.7616e-09	1.3403e-08	4.2875e-08	1.2386e-07	3.2496e-07	7.7868e-07	1.7136e-06	3.4821e-06	6.5682e-06	1.156e-05	1.9079e-05	2.9675e-05	4.37e-05	6.1212e-05	8.1916e-05	0.00010518	0.00013009	0.00015561	0.00018067	0.00020433	0.00022583	0.00024466	0.00026057	0.00027355	0.00028375	0.00029147	0.00029707	0.00030096	0.00030351	0.00030508	0.00030598	0.00030646	0.00030666	0.00030671	0.00030661	0.00030633	0.00030573	0.00030462	0.00030275	0.00029978	0.00029534	0.00028905	0.00028051	0.00026937	0.00025538	0.00023844	0.00021864	0.00019632	0.00017208	0.00014674	0.00012131	9.6857e-05	7.4394e-05	5.4743e-05	3.8427e-05	2.5617e-05	1.6143e-05	9.5703e-06	5.3115e-06	2.7456e-06	1.315e-06	5.8051e-07	2.349e-07	8.6666e-08	2.908e-08	9.1726e-09	3.9303e-09	5.6376e-09	1.5039e-08	4.0262e-08	9.9957e-08	2.2969e-07	4.9055e-07	9.7812e-07	1.829e-06	3.2212e-06	5.3666e-06	8.4933e-06	1.2821e-05	1.8538e-05	2.5775e-05	3.4604e-05	4.5038e-05	5.7057e-05	7.0636e-05	8.5784e-05	0.00010257	0.00012115	0.00014173	0.00016459	0.00019001	0.00021827	0.00024963	0.00028434	0.00032279	0.00036568	0.00041423	0.00047049	0.00053762	0.00062011	0.00072387	0.00085621	0.0010258	0.0012429	0.0015191	0.0018683	0.0023076	0.0028583	0.003548	0.0044135	0.0055044	0.0068887	0.0086598	0.010946	0.013921	0.017819	0.02295	0.029718	0.038642	0.05038	0.065745	0.085725	0.11149	0.14439	0.18593	0.23772	0.3014	0.37855	0.47056	0.57849	0.70294	0.84396	1.0009	1.1725	1.3567	1.551	1.7522	1.9568	2.1613	2.3619	2.5553	2.7383	2.9082	3.0626	3.2	3.3191	3.4191	3.4996	3.5606	3.6022	3.6246	3.628	3.6128	3.5791	3.5272	3.4572	3.3694	3.264	3.1415	3.0027	2.8486	2.6806	2.5004	2.3104	2.1133	1.912	1.7098	1.5101	1.3163	1.1314	0.95827	0.79915	0.6557	0.52888	0.41903	0.32583	0.24844	0.18559	0.1357	0.097032	0.067786	0.046226	0.030744	0.019926	0.012574	0.0077189	0.0046057	0.0026685	0.0014999	0.00081692	0.00043071	0.00021956	0.00010806	5.1262e-05	2.3379e-05	1.0214e-05	4.2538e-06	1.678e-06	6.2208e-07	2.1488e-07	6.8531e-08	1.9993e-08	5.288e-09	1.2572e-09	2.6649e-10	4.998e-11	8.2334e-12	1.183e-12	1.4728e-13	1.578e-14	1.446e-15	1.126e-16	7.4055e-18	4.0882e-19	1.883e-20	7.1928e-22	2.2653e-23	5.8481e-25	1.2305e-26	2.0983e-28	2.884e-30	3.1781e-32	2.7934e-34	1.9487e-36	1.0739e-38	4.6563e-41	1.5829e-43	4.2109e-46	8.7696e-49	1.4374e-51	1.8803e-54	2.0171e-57	1.8486e-60	1.5059e-63	1.1024e-66	7.0606e-70	3.7963e-73	1.6568e-76	5.7506e-80	1.5706e-83	3.3566e-87	5.5968e-91	7.2686e-95	7.3444e-99	5.7696e-103	3.523e-107	1.7597e-111	1.9995e-114	3.9509e-116	7.5003e-118	1.3264e-119	2.1856e-121	3.3571e-123	4.8085e-125	6.4255e-127
4.1092e-20	7.296e-20	1.2193e-19	1.92e-19	2.8516e-19	3.9976e-19	5.2938e-19	6.6258e-19	7.842e-19	8.7799e-19	9.3012e-19	9.3244e-19	8.8459e-19	7.9406e-19	6.7432e-19	5.4218e-19	4.2868e-19	6.6468e-19	6.6683e-18	9.5145e-17	1.1797e-15	1.2452e-14	1.1246e-13	8.743e-13	5.8864e-12	3.4531e-11	1.7758e-10	8.0536e-10	3.2404e-09	1.1636e-08	3.7511e-08	1.0918e-07	2.8858e-07	6.9652e-07	1.5437e-06	3.1585e-06	5.9978e-06	1.0625e-05	1.7648e-05	2.7616e-05	4.0909e-05	5.7628e-05	7.754e-05	0.00010008	0.0001244	0.0001495	0.00017436	0.00019801	0.0002197	0.00023889	0.00025529	0.00026883	0.00027963	0.00028796	0.00029414	0.00029856	0.00030158	0.00030354	0.00030475	0.00030543	0.00030576	0.00030584	0.00030568	0.00030524	0.0003044	0.00030296	0.00030066	0.0002972	0.00029222	0.00028533	0.00027618	0.00026444	0.00024991	0.00023253	0.00021243	0.00018998	0.00016581	0.00014076	0.00011581	9.1997e-05	7.0289e-05	5.1438e-05	3.59e-05	2.379e-05	1.4899e-05	8.7768e-06	4.8391e-06	2.4845e-06	1.1818e-06	5.1796e-07	2.0807e-07	7.6185e-08	2.5324e-08	7.7576e-09	2.7647e-09	2.9629e-09	7.6677e-09	2.1141e-08	5.422e-08	1.2857e-07	2.8296e-07	5.8069e-07	1.1162e-06	2.0182e-06	3.4478e-06	5.588e-06	8.6277e-06	1.2742e-05	1.8073e-05	2.472e-05	3.274e-05	4.2165e-05	5.3029e-05	6.5406e-05	7.9438e-05	9.5357e-05	0.00011348	0.00013417	0.00015782	0.00018478	0.00021533	0.00024975	0.00028836	0.00033171	0.00038086	0.00043763	0.00050496	0.00058715	0.00069006	0.00082112	0.00098939	0.0012056	0.0014825	0.0018351	0.002282	0.0028465	0.003559	0.0044597	0.005603	0.0070637	0.0089441	0.011385	0.014575	0.018772	0.02431	0.031629	0.041292	0.054008	0.070657	0.092303	0.12021	0.15581	0.20073	0.25667	0.32537	0.40848	0.50743	0.6233	0.75664	0.90742	1.0749	1.2575	1.4531	1.6587	1.8712	2.0867	2.3014	2.5115	2.7134	2.9037	3.0799	3.2395	3.381	3.5033	3.6055	3.6876	3.7494	3.7913	3.8135	3.8163	3.8002	3.7651	3.7115	3.6393	3.5488	3.4401	3.3137	3.1702	3.0105	2.836	2.6485	2.4503	2.2441	2.0331	1.8207	1.6104	1.4058	1.2102	1.0267	0.85762	0.70488	0.56958	0.45213	0.35227	0.26917	0.20153	0.14771	0.1059	0.074185	0.05074	0.033854	0.022015	0.013941	0.0085894	0.005144	0.0029912	0.0016869	0.00092142	0.00048681	0.00024838	0.00012217	5.7819e-05	2.6259e-05	1.1405e-05	4.7163e-06	1.846e-06	6.7912e-07	2.3293e-07	7.3836e-08	2.1439e-08	5.6514e-09	1.3409e-09	2.8402e-10	5.3291e-11	8.7917e-12	1.2663e-12	1.5815e-13	1.7015e-14	1.5666e-15	1.2268e-16	8.12e-18	4.5149e-19	2.0963e-20	8.0799e-22	2.5703e-23	6.7101e-25	1.4297e-26	2.473e-28	3.4556e-30	3.8827e-32	3.4947e-34	2.5131e-36	1.4431e-38	6.637e-41	2.4671e-43	7.5437e-46	1.9488e-48	4.3772e-51	8.6807e-54	1.5061e-56	2.2247e-59	2.7173e-62	2.684e-65	2.1143e-68	1.3172e-71	6.4583e-75	2.4839e-78	7.4764e-82	1.7581e-85	3.2253e-89	4.6107e-93	5.1317e-97	4.4445e-101	3.1054e-105	3.0198e-108	6.8073e-110	1.508e-111	3.1141e-113	5.9956e-115	1.0766e-116	1.8033e-118	2.8192e-120	4.1151e-122
1.7786e-21	3.2337e-21	5.5208e-21	8.8606e-21	1.3381e-20	1.9029e-20	2.5502e-20	3.2226e-20	3.8418e-20	4.3223e-20	4.5903e-20	4.6022e-20	4.3562e-20	3.8923e-20	3.2838e-20	2.6621e-20	3.2609e-20	2.892e-19	4.8715e-18	7.2138e-17	9.0446e-16	9.6436e-15	8.7969e-14	6.9071e-13	4.6966e-12	2.7825e-11	1.4449e-10	6.617e-10	2.6881e-09	9.7447e-09	3.1708e-08	9.3146e-08	2.4843e-07	6.0498e-07	1.3525e-06	2.791e-06	5.344e-06	9.5436e-06	1.5976e-05	2.519e-05	3.759e-05	5.3328e-05	7.2243e-05	9.3848e-05	0.00011738	0.0001419	0.00016642	0.00018999	0.00021184	0.00023139	0.00024832	0.00026251	0.00027403	0.00028308	0.00028996	0.00029503	0.00029861	0.00030106	0.00030264	0.0003036	0.00030408	0.00030419	0.00030396	0.00030332	0.00030217	0.00030032	0.00029751	0.00029345	0.0002878	0.0002802	0.00027032	0.00025789	0.00024275	0.00022488	0.00020448	0.00018196	0.00015796	0.00013333	0.00010904	8.6079e-05	6.5335e-05	4.7485e-05	3.2905e-05	2.1644e-05	1.3452e-05	7.8615e-06	4.2993e-06	2.189e-06	1.0323e-06	4.4851e-07	1.7856e-07	6.4785e-08	2.1316e-08	6.394e-09	2.0049e-09	1.5482e-09	3.73e-09	1.056e-08	2.7999e-08	6.8583e-08	1.5575e-07	3.2939e-07	6.5172e-07	1.2116e-06	2.1255e-06	3.5333e-06	5.5884e-06	8.4443e-06	1.224e-05	1.7089e-05	2.308e-05	3.0291e-05	3.881e-05	4.8774e-05	6.0396e-05	7.3986e-05	8.9941e-05	0.00010871	0.00013075	0.00015646	0.00018616	0.0002201	0.00025856	0.00030201	0.00035136	0.00040829	0.00047559	0.00055749	0.00065983	0.00079027	0.00095827	0.0011752	0.0014548	0.0018133	0.0022709	0.0028532	0.0035932	0.0045349	0.0057381	0.0072844	0.0092859	0.011896	0.015321	0.019838	0.025812	0.033716	0.044158	0.0579	0.075887	0.09926	0.12936	0.16774	0.21609	0.27623	0.34997	0.43902	0.54485	0.66852	0.81056	0.97079	1.1483	1.3415	1.5479	1.7643	1.9873	2.2129	2.437	2.6556	2.8651	3.062	3.2436	3.4077	3.5526	3.6774	3.7814	3.8645	3.9269	3.9688	3.9908	3.993	3.9759	3.9397	3.8846	3.8106	3.7178	3.6063	3.4764	3.3288	3.1642	2.9839	2.7898	2.5841	2.3697	2.1497	1.9278	1.7075	1.4928	1.2871	1.0936	0.91502	0.75334	0.60983	0.485	0.37865	0.28996	0.21761	0.1599	0.11495	0.080768	0.055421	0.037105	0.024218	0.015396	0.0095246	0.0057277	0.0033443	0.0018933	0.0010377	0.00054972	0.00028091	0.00013819	6.5291e-05	2.9547e-05	1.2765e-05	5.2428e-06	2.0363e-06	7.4315e-07	2.5297e-07	7.9663e-08	2.301e-08	6.0435e-09	1.4311e-09	3.0302e-10	5.6926e-11	9.417e-12	1.362e-12	1.7105e-13	1.8529e-14	1.7201e-15	1.36e-16	9.1012e-18	5.1247e-19	2.4139e-20	9.4583e-22	3.0665e-23	8.1858e-25	1.7914e-26	3.2029e-28	4.6704e-30	5.5573e-32	5.4201e-34	4.3754e-36	2.97e-38	1.7282e-40	8.7545e-43	3.8711e-45	1.4756e-47	4.7474e-50	1.262e-52	2.7269e-55	4.7346e-58	6.5564e-61	7.2039e-64	6.2571e-67	4.2836e-70	2.3058e-73	9.7385e-77	3.2213e-80	8.332e-84	1.6829e-87	2.6512e-91	3.2552e-95	3.198e-99	2.785e-102	7.0727e-104	1.8264e-105	4.4004e-107	9.8911e-109	2.0748e-110	4.0624e-112	7.4271e-114	1.2683e-115	2.0239e-117
6.3793e-23	1.1878e-22	2.0721e-22	3.39e-22	5.2061e-22	7.5114e-22	1.0189e-21	1.3e-21	1.5612e-21	1.765e-21	1.8791e-21	1.8842e-21	1.7794e-21	1.5828e-21	1.3363e-21	1.3961e-21	9.8379e-21	1.9436e-19	3.4617e-18	5.1938e-17	6.5873e-16	7.1048e-15	6.5561e-14	5.2074e-13	3.5818e-12	2.1465e-11	1.1275e-10	5.2222e-10	2.1455e-09	7.8649e-09	2.5875e-08	7.684e-08	2.0715e-07	5.0977e-07	1.1515e-06	2.4002e-06	4.6414e-06	8.3687e-06	1.4141e-05	2.2499e-05	3.3869e-05	4.8457e-05	6.6179e-05	8.6642e-05	0.00010917	0.00013292	0.00015693	0.00018029	0.00020221	0.0002221	0.00023956	0.00025443	0.00026672	0.00027658	0.00028426	0.00029006	0.00029432	0.00029732	0.00029934	0.00030061	0.00030128	0.00030143	0.00030111	0.00030024	0.00029874	0.0002964	0.00029299	0.00028824	0.00028182	0.00027342	0.00026274	0.00024956	0.00023378	0.00021545	0.0001948	0.0001723	0.00014861	0.00012459	0.00010116	7.9258e-05	5.9685e-05	4.3023e-05	2.9559e-05	1.9272e-05	1.1868e-05	6.8709e-06	3.7213e-06	1.876e-06	8.7574e-07	3.7656e-07	1.4834e-07	5.3241e-08	1.732e-08	5.1065e-09	1.4711e-09	8.1902e-10	1.7335e-09	5.0164e-09	1.3765e-08	3.4887e-08	8.1885e-08	1.788e-07	3.6484e-07	6.9871e-07	1.2612e-06	2.1548e-06	3.4989e-06	5.4213e-06	8.0491e-06	1.1501e-05	1.5887e-05	2.1319e-05	2.7936e-05	3.5932e-05	4.5587e-05	5.7277e-05	7.1468e-05	8.8669e-05	0.00010938	0.00013402	0.00016293	0.00019633	0.00023447	0.00027776	0.00032704	0.00038392	0.00045114	0.00053291	0.00063523	0.00076598	0.00093512	0.0011547	0.0014394	0.0018068	0.0022788	0.002883	0.0036555	0.0046444	0.0059148	0.007556	0.0096901	0.012484	0.016161	0.02102	0.027455	0.035974	0.047229	0.062037	0.081406	0.10655	0.1389	0.18008	0.23189	0.29621	0.37494	0.46984	0.58239	0.71362	0.86401	1.0333	1.2204	1.4235	1.6399	1.8663	2.0989	2.3336	2.5661	2.7923	3.0084	3.2109	3.3971	3.5648	3.7125	3.8392	3.9445	4.0283	4.0909	4.1327	4.1543	4.1559	4.138	4.1008	4.0445	3.9689	3.8743	3.7605	3.6278	3.4766	3.3077	3.1225	2.9226	2.7103	2.4884	2.2603	2.0296	1.8002	1.5761	1.3609	1.1581	0.97056	0.80043	0.64911	0.51723	0.40464	0.31055	0.23362	0.17212	0.12409	0.087461	0.060219	0.040467	0.026518	0.01693	0.01052	0.0063552	0.0037277	0.0021198	0.0011666	0.00062011	0.00031766	0.00015644	7.3879e-05	3.3358e-05	1.4353e-05	5.8617e-06	2.2612e-06	8.1914e-07	2.7681e-07	8.66e-08	2.4881e-08	6.5104e-09	1.5387e-09	3.258e-10	6.1323e-11	1.0184e-11	1.4816e-12	1.8753e-13	2.0517e-14	1.9279e-15	1.5466e-16	1.0532e-17	6.0552e-19	2.9251e-20	1.1823e-21	3.9869e-23	1.12e-24	2.6235e-26	5.1466e-28	8.524e-30	1.2054e-31	1.4724e-33	1.5642e-35	1.442e-37	1.1407e-39	7.6208e-42	4.2311e-44	1.9265e-46	7.1225e-49	2.1225e-51	5.0702e-54	9.6683e-57	1.4665e-59	1.7638e-62	1.6777e-65	1.2589e-68	7.435e-72	3.4493e-75	1.2547e-78	3.5728e-82	7.9532e-86	1.3825e-89	1.9145e-93	1.5748e-96	4.4364e-98	1.3337e-99	3.7444e-101	9.816e-103	2.4031e-104	5.4953e-106	1.1741e-107	2.3443e-109	4.376e-111	7.6394e-113
1.8849e-24	3.5951e-24	6.4088e-24	1.0689e-23	1.6696e-23	2.4442e-23	3.3559e-23	4.3239e-23	5.2307e-23	5.9429e-23	6.3432e-23	6.3611e-23	5.9938e-23	5.3239e-23	5.1335e-23	2.6281e-22	5.9803e-21	1.2896e-19	2.3321e-18	3.5443e-17	4.5537e-16	4.9756e-15	4.6516e-14	3.7433e-13	2.6087e-12	1.5839e-11	8.4291e-11	3.9551e-10	1.646e-09	6.1115e-09	2.0362e-08	6.1231e-08	1.6711e-07	4.1627e-07	9.5153e-07	2.0067e-06	3.9249e-06	7.156e-06	1.2223e-05	1.9653e-05	2.9888e-05	4.3182e-05	5.9533e-05	7.8649e-05	9.9964e-05	0.00012271	0.000146	0.00016898	0.00019083	0.00021095	0.00022889	0.00024443	0.00025751	0.00026821	0.00027674	0.00028335	0.00028833	0.00029196	0.00029448	0.0002961	0.00029696	0.00029717	0.00029674	0.00029562	0.00029371	0.00029084	0.00028677	0.00028126	0.00027401	0.00026475	0.00025324	0.00023931	0.00022292	0.00020419	0.00018341	0.00016108	0.0001379	0.0001147	9.2353e-05	7.1724e-05	5.3518e-05	3.821e-05	2.5993e-05	1.6773e-05	1.0221e-05	5.8528e-06	3.1345e-06	1.5621e-06	7.207e-07	3.062e-07	1.1916e-07	4.2242e-08	1.3568e-08	3.9374e-09	1.0746e-09	4.535e-10	7.9538e-10	2.3346e-09	6.6345e-09	1.7419e-08	4.2322e-08	9.557e-08	2.0147e-07	3.982e-07	7.4105e-07	1.3038e-06	2.1778e-06	3.4677e-06	5.2861e-06	7.7498e-06	1.0981e-05	1.512e-05	2.0345e-05	2.6899e-05	3.5118e-05	4.5436e-05	5.8365e-05	7.4453e-05	9.4218e-05	0.00011809	0.00014639	0.00017933	0.00021714	0.00026019	0.00030932	0.00036614	0.00043343	0.00051551	0.00061859	0.0007509	0.00092292	0.0011475	0.0014401	0.0018196	0.0023097	0.0029402	0.0037503	0.0047922	0.0061371	0.007882	0.010159	0.013149	0.017094	0.022314	0.029231	0.03839	0.050486	0.066388	0.087167	0.11411	0.14872	0.1927	0.24794	0.31639	0.4	0.50056	0.61956	0.75801	0.91628	1.094	1.29	1.5022	1.7277	1.9631	2.2044	2.4471	2.6869	2.9196	3.1412	3.3484	3.5383	3.7089	3.8586	3.9867	4.0928	4.1769	4.2395	4.2811	4.3022	4.3032	4.2846	4.2466	4.1893	4.1126	4.0165	3.9008	3.7658	3.6118	3.4394	3.2499	3.045	2.8269	2.5986	2.3632	2.1247	1.8871	1.6544	1.4306	1.2193	1.0234	0.84546	0.68685	0.54834	0.42986	0.33064	0.24934	0.18419	0.13318	0.09418	0.065076	0.043901	0.02889	0.018528	0.011568	0.0070235	0.0041408	0.0023666	0.0013087	0.00069865	0.00035917	0.00017733	8.3841e-05	3.7842e-05	1.6249e-05	6.6124e-06	2.5384e-06	9.1439e-07	3.0718e-07	9.5575e-08	2.7335e-08	7.1309e-09	1.6833e-09	3.5676e-10	6.7373e-11	1.1255e-11	1.6518e-12	2.1158e-13	2.3511e-14	2.2538e-15	1.8547e-16	1.3047e-17	7.8231e-19	3.9922e-20	1.7348e-21	6.4383e-23	2.0516e-24	5.6509e-26	1.3532e-27	2.8231e-29	5.1116e-31	7.9588e-33	1.0526e-34	1.1677e-36	1.0745e-38	8.127e-41	5.0159e-43	2.5117e-45	1.0156e-47	3.3023e-50	8.6037e-53	1.7902e-55	2.9656e-58	3.9003e-61	4.0617e-64	3.3411e-67	2.166e-70	1.1044e-73	4.4209e-77	1.3871e-80	3.4067e-84	6.6525e-88	5.4778e-91	1.6836e-92	5.8819e-94	1.9216e-95	5.8673e-97	1.6744e-98	4.4668e-100	1.1141e-101	2.5988e-103	5.6703e-105	1.1577e-106	2.2124e-108
4.5618e-26	8.9135e-26	1.624e-25	2.7617e-25	4.3877e-25	6.5178e-25	9.0589e-25	1.1787e-24	1.4364e-24	1.6402e-24	1.7551e-24	1.7603e-24	1.657e-24	1.5696e-24	5.5655e-24	1.4055e-22	3.6909e-21	8.1009e-20	1.4858e-18	2.2903e-17	2.985e-16	3.3091e-15	3.1389e-14	2.5632e-13	1.8126e-12	1.1168e-11	6.0309e-11	2.8714e-10	1.2124e-09	4.567e-09	1.5435e-08	4.7074e-08	1.3028e-07	3.2899e-07	7.6222e-07	1.6289e-06	3.2273e-06	5.9588e-06	1.0304e-05	1.6766e-05	2.5793e-05	3.7684e-05	5.2514e-05	7.0094e-05	8.9971e-05	0.00011148	0.00013383	0.00015619	0.00017778	0.00019797	0.00021626	0.00023238	0.0002462	0.00025774	0.00026713	0.00027457	0.00028032	0.0002846	0.00028765	0.00028965	0.00029074	0.000291	0.00029045	0.00028906	0.00028672	0.00028326	0.0002785	0.00027219	0.0002641	0.00025398	0.00024166	0.00022704	0.00021014	0.00019115	0.00017041	0.00014847	0.00012602	0.00010387	8.2842e-05	6.3697e-05	4.7034e-05	3.3218e-05	2.2343e-05	1.4251e-05	8.5795e-06	4.8525e-06	2.5659e-06	1.2622e-06	5.7464e-07	2.4086e-07	9.2448e-08	3.2317e-08	1.0233e-08	2.9247e-09	7.7587e-10	2.8711e-10	4.4169e-10	1.2965e-09	3.7544e-09	1.0071e-08	2.5032e-08	5.7871e-08	1.2496e-07	2.53e-07	4.8225e-07	8.6884e-07	1.4855e-06	2.4201e-06	3.7736e-06	5.659e-06	8.2054e-06	1.157e-05	1.596e-05	2.1658e-05	2.904e-05	3.8579e-05	5.082e-05	6.6326e-05	8.5615e-05	0.00010911	0.00013709	0.00016978	0.00020738	0.0002503	0.0002994	0.00035638	0.00042415	0.00050726	0.00061218	0.00074759	0.00092451	0.0011565	0.00146	0.0018551	0.0023672	0.0030282	0.0038808	0.0049814	0.0064074	0.0082637	0.010694	0.013891	0.018116	0.023711	0.031127	0.040943	0.053898	0.070911	0.093112	0.12185	0.15871	0.20547	0.26406	0.33651	0.42481	0.53077	0.65586	0.80105	0.96663	1.1521	1.3562	1.5765	1.8102	2.0535	2.3022	2.5517	2.7977	3.0358	3.2619	3.4727	3.6655	3.8381	3.9892	4.1181	4.2246	4.3088	4.3711	4.4123	4.4329	4.4334	4.4143	4.3756	4.3176	4.24	4.1428	4.0258	3.889	3.7327	3.5576	3.3646	3.1555	2.9326	2.6986	2.4571	2.2118	1.967	1.7267	1.4952	1.2762	1.0729	0.88776	0.72248	0.57787	0.45394	0.34994	0.26454	0.19596	0.14212	0.10083	0.069928	0.047365	0.031307	0.020174	0.01266	0.0077282	0.0045818	0.0026336	0.0014645	0.00078601	0.00040605	0.00020131	9.5481e-05	4.3183e-05	1.8556e-05	7.547e-06	2.8922e-06	1.0392e-06	3.4811e-07	1.0802e-07	3.0837e-08	8.0412e-09	1.9013e-09	4.0471e-10	7.7014e-11	1.3016e-11	1.9421e-12	2.5447e-13	2.9148e-14	2.9089e-15	2.5239e-16	1.903e-17	1.2482e-18	7.1408e-20	3.5735e-21	1.5677e-22	6.0253e-24	2.0205e-25	5.8667e-27	1.4606e-28	3.0856e-30	5.4781e-32	8.1044e-34	9.9195e-36	9.9841e-38	8.2208e-40	5.5122e-42	2.9973e-44	1.3167e-46	4.6559e-49	1.3208e-51	2.9964e-54	5.4197e-57	7.7938e-60	8.8873e-63	8.0163e-66	5.7066e-69	3.1996e-72	1.4104e-75	4.8799e-79	1.3424e-82	1.1739e-85	3.8771e-87	1.571e-88	5.9623e-90	2.1169e-91	7.0314e-93	2.1852e-94	6.3548e-96	1.7296e-97	4.4065e-99	1.0511e-100	2.3484e-102	4.9153e-104
8.992e-28	1.8001e-27	3.3522e-27	5.8128e-27	9.3943e-27	1.4161e-26	1.9925e-26	2.6182e-26	3.2145e-26	3.6887e-26	3.9572e-26	3.9714e-26	3.8518e-26	9.5225e-26	2.501e-24	8.036e-23	2.1548e-21	4.8019e-20	8.9429e-19	1.4001e-17	1.8536e-16	2.0877e-15	2.0123e-14	1.6699e-13	1.2002e-12	7.5153e-12	4.1246e-11	1.9957e-10	8.5637e-10	3.2777e-09	1.1255e-08	3.4867e-08	9.8001e-08	2.5129e-07	5.9101e-07	1.2817e-06	2.5764e-06	4.8244e-06	8.4575e-06	1.3947e-05	2.1734e-05	3.2152e-05	4.5347e-05	6.1229e-05	7.9463e-05	9.9499e-05	0.00012064	0.00014212	0.0001632	0.00018323	0.00020169	0.00021824	0.00023268	0.00024498	0.00025518	0.00026344	0.00026994	0.00027489	0.00027848	0.00028087	0.00028218	0.0002825	0.00028184	0.00028016	0.00027737	0.00027333	0.00026787	0.00026078	0.00025186	0.00024095	0.00022791	0.00021272	0.00019548	0.00017642	0.00015596	0.00013467	0.00011322	9.2374e-05	7.2891e-05	5.5422e-05	4.0448e-05	2.8221e-05	1.8744e-05	1.18e-05	7.009e-06	3.9097e-06	2.0383e-06	9.8818e-07	4.4326e-07	1.8301e-07	6.9172e-08	2.3808e-08	7.4222e-09	2.093e-09	5.6477e-10	2.6335e-10	4.9712e-10	1.4227e-09	3.9377e-09	1.0163e-08	2.4483e-08	5.5216e-08	1.1695e-07	2.3339e-07	4.4026e-07	7.8764e-07	1.341e-06	2.181e-06	3.4023e-06	5.1151e-06	7.4504e-06	1.0574e-05	1.471e-05	2.0162e-05	2.7331e-05	3.671e-05	4.8856e-05	6.433e-05	8.3636e-05	0.00010717	0.0001352	0.00016793	0.00020558	0.00024862	0.00029801	0.00035561	0.00042455	0.00050966	0.00061781	0.00075813	0.0009422	0.0011843	0.0015017	0.0019159	0.0024536	0.0031494	0.0040489	0.0052133	0.006726	0.0087005	0.011291	0.014704	0.019218	0.025199	0.033124	0.043607	0.057427	0.075554	0.099171	0.12969	0.16875	0.2182	0.28003	0.3563	0.44903	0.56004	0.69076	0.84211	1.0143	1.2067	1.4179	1.6453	1.886	2.1359	2.3908	2.646	2.8969	3.1391	3.3686	3.5821	3.7768	3.9508	4.1027	4.2319	4.3384	4.4224	4.4844	4.5251	4.5452	4.5452	4.5256	4.4865	4.4279	4.3498	4.2519	4.1339	3.9959	3.838	3.6607	3.465	3.2527	3.0258	2.7873	2.5406	2.2896	2.0385	1.7918	1.5537	1.328	1.1181	0.92666	0.75543	0.60536	0.4765	0.36815	0.27899	0.20723	0.15074	0.10731	0.074703	0.05081	0.033737	0.021848	0.013785	0.0084632	0.005048	0.0029199	0.0016342	0.00088274	0.00045888	0.00022886	0.00010914	4.9598e-05	2.1399e-05	8.7311e-06	3.3544e-06	1.2077e-06	4.0534e-07	1.2608e-07	3.6124e-08	9.4726e-09	2.2591e-09	4.8699e-10	9.4362e-11	1.6353e-11	2.5245e-12	3.4612e-13	4.2069e-14	4.53e-15	4.3227e-16	3.6571e-17	2.7426e-18	1.8197e-19	1.0636e-20	5.4407e-22	2.4157e-23	9.2268e-25	3.0052e-26	8.2795e-28	1.9157e-29	3.6992e-31	5.928e-33	7.8442e-35	8.5315e-37	7.5942e-39	5.5101e-41	3.2463e-43	1.5473e-45	5.9452e-48	1.8355e-50	4.5388e-53	8.9624e-56	1.4092e-58	1.7597e-61	1.7408e-64	1.3612e-67	8.3961e-71	4.0779e-74	1.5768e-77	1.5487e-80	5.4395e-82	2.5504e-83	1.1222e-84	4.6242e-86	1.7846e-87	6.4504e-89	2.1837e-90	6.9246e-92	2.0572e-93	5.7265e-95	1.494e-96	3.6538e-98	8.3795e-100
1.4355e-29	2.9445e-29	5.6049e-29	9.9108e-29	1.6294e-28	2.4926e-28	3.5505e-28	4.7118e-28	5.828e-28	6.7212e-28	7.2303e-28	7.3623e-28	1.3473e-27	3.3439e-26	1.3187e-24	4.3469e-23	1.1845e-21	2.6829e-20	5.0797e-19	8.0877e-18	1.0892e-16	1.2481e-15	1.2242e-14	1.0339e-13	7.5627e-13	4.8202e-12	2.6927e-11	1.3261e-10	5.7917e-10	2.2559e-09	7.8822e-09	2.4843e-08	7.1026e-08	1.8521e-07	4.4284e-07	9.7609e-07	1.9934e-06	3.7912e-06	6.7475e-06	1.1292e-05	1.7849e-05	2.6771e-05	3.8261e-05	5.2323e-05	6.8737e-05	8.7073e-05	0.00010674	0.00012706	0.00014733	0.00016692	0.00018529	0.00020205	0.00021693	0.00022984	0.00024075	0.00024974	0.00025695	0.00026253	0.00026664	0.00026941	0.00027095	0.00027132	0.00027055	0.00026859	0.00026537	0.00026077	0.00025464	0.00024683	0.00023718	0.00022558	0.00021198	0.00019643	0.00017907	0.00016023	0.00014033	0.00011997	9.9797e-05	8.0518e-05	6.279e-05	4.7155e-05	3.3973e-05	2.3386e-05	1.5318e-05	9.5054e-06	5.5628e-06	3.056e-06	1.5685e-06	7.4834e-07	3.3024e-07	1.341e-07	4.9838e-08	1.6864e-08	5.1727e-09	1.4543e-09	4.5797e-10	4.2473e-10	1.0623e-09	2.9256e-09	7.5846e-09	1.8364e-08	4.1648e-08	8.8783e-08	1.7852e-07	3.3967e-07	6.136e-07	1.0557e-06	1.7356e-06	2.736e-06	4.1516e-06	6.0904e-06	8.6811e-06	1.2089e-05	1.6537e-05	2.2335e-05	2.9888e-05	3.9691e-05	5.2294e-05	6.8245e-05	8.8024e-05	0.000112	0.00014044	0.00017354	0.00021158	0.00025512	0.00030529	0.00036417	0.0004352	0.00052356	0.00063654	0.00078377	0.0009774	0.0012323	0.0015668	0.0020033	0.0025703	0.0033045	0.0042549	0.0054874	0.0070916	0.0091891	0.011945	0.01558	0.020389	0.026761	0.035198	0.046349	0.06103	0.080257	0.10526	0.13752	0.1787	0.23072	0.29561	0.37546	0.4723	0.58792	0.72373	0.88057	1.0586	1.257	1.4741	1.7076	1.9539	2.2092	2.4689	2.7284	2.9829	3.2281	3.46	3.6752	3.871	4.0456	4.1977	4.3269	4.433	4.5166	4.5781	4.6183	4.638	4.6376	4.6176	4.5782	4.5194	4.441	4.3427	4.2242	4.0854	3.9263	3.7475	3.5499	3.3351	3.1052	2.8632	2.6124	2.3568	2.1008	1.8488	1.6051	1.3738	1.1584	0.96152	0.78518	0.63035	0.49716	0.38497	0.29245	0.21782	0.15893	0.11353	0.079329	0.054184	0.036146	0.023529	0.014929	0.0092209	0.0055358	0.0032242	0.0018176	0.0009892	0.00051819	0.00026046	0.00012518	5.7325e-05	2.4921e-05	1.0244e-05	3.9648e-06	1.4384e-06	4.8681e-07	1.529e-07	4.4332e-08	1.1805e-08	2.8726e-09	6.36e-10	1.2765e-10	2.3158e-11	3.7904e-12	5.5902e-13	7.4212e-14	8.8557e-15	9.4749e-16	9.0514e-17	7.6748e-18	5.7338e-19	3.7436e-20	2.1184e-21	1.0308e-22	4.281e-24	1.5077e-25	4.4753e-27	1.1136e-28	2.3114e-30	3.9827e-32	5.6716e-34	6.6469e-36	6.3845e-38	5.0065e-40	3.1929e-42	1.65e-44	6.8858e-47	2.3127e-49	6.2314e-52	1.343e-54	2.3086e-57	3.1569e-60	3.4255e-63	2.9428e-66	1.9977e-69	1.0823e-72	1.2552e-75	4.6713e-77	2.5275e-78	1.2865e-79	6.1401e-81	2.7477e-82	1.1528e-83	4.5348e-85	1.6726e-86	5.7848e-88	1.8763e-89	5.708e-91	1.6291e-92	4.3627e-94	1.0966e-95
1.846e-31	3.8797e-31	7.5489e-31	1.3612e-30	2.2766e-30	3.5344e-30	5.0969e-30	6.831e-30	8.5123e-30	9.8669e-30	1.0708e-29	1.5955e-29	3.3396e-28	1.617e-26	6.5903e-25	2.2093e-23	6.1235e-22	1.4112e-20	2.7198e-19	4.4093e-18	6.0482e-17	7.0609e-16	7.057e-15	6.074e-14	4.5287e-13	2.9423e-12	1.6755e-11	8.4116e-11	3.7445e-10	1.4866e-09	5.2932e-09	1.6999e-08	4.9507e-08	1.3147e-07	3.2008e-07	7.1807e-07	1.4921e-06	2.8862e-06	5.2222e-06	8.8804e-06	1.4258e-05	2.1708e-05	3.1478e-05	4.365e-05	5.8111e-05	7.4552e-05	9.2497e-05	0.00011136	0.00013051	0.00014934	0.00016731	0.00018398	0.00019906	0.00021236	0.0002238	0.00023339	0.0002412	0.00024734	0.00025191	0.00025503	0.00025677	0.0002572	0.00025632	0.0002541	0.00025049	0.00024539	0.00023868	0.00023026	0.00022004	0.00020795	0.00019402	0.00017836	0.00016119	0.00014287	0.00012386	0.00010474	8.6126e-05	6.8642e-05	5.2843e-05	3.9152e-05	2.7812e-05	1.8866e-05	1.2171e-05	7.4344e-06	4.2809e-06	2.313e-06	1.167e-06	5.4718e-07	2.3721e-07	9.4595e-08	3.4518e-08	1.1469e-08	3.4691e-09	1.0183e-09	5.1603e-10	9.5013e-10	2.5935e-09	6.8661e-09	1.6963e-08	3.9145e-08	8.4687e-08	1.7239e-07	3.314e-07	6.0374e-07	1.0458e-06	1.7285e-06	2.7348e-06	4.1567e-06	6.0919e-06	8.645e-06	1.1935e-05	1.6115e-05	2.1393e-05	2.8063e-05	3.6516e-05	4.7232e-05	6.0744e-05	7.7577e-05	9.8189e-05	0.00012294	0.00015209	0.00018588	0.00022467	0.00026917	0.00032073	0.00038171	0.0004559	0.00054892	0.00066851	0.00082478	0.0010304	0.001301	0.0016554	0.0021174	0.0027168	0.0034928	0.0044975	0.0058016	0.0075006	0.0097245	0.012649	0.016508	0.021614	0.028375	0.037322	0.049131	0.064658	0.084956	0.1113	0.14521	0.18842	0.24286	0.31058	0.39371	0.49424	0.61397	0.75423	0.91579	1.0987	1.302	1.5241	1.7622	2.013	2.2722	2.5354	2.7978	3.0547	3.3017	3.5348	3.7507	3.9469	4.1214	4.2733	4.402	4.5076	4.5906	4.6516	4.6913	4.7105	4.7098	4.6896	4.6501	4.5912	4.5127	4.4143	4.2956	4.1564	3.9968	3.8171	3.6183	3.4018	3.1698	2.9252	2.6715	2.4125	2.1527	1.8966	1.6486	1.4129	1.193	0.99175	0.8112	0.65241	0.51558	0.4001	0.30469	0.22755	0.16654	0.11936	0.083727	0.057432	0.038495	0.025189	0.016075	0.009992	0.0060402	0.0035442	0.002014	0.0011055	0.00058435	0.00029652	0.00014394	6.6612e-05	2.9277e-05	1.2175e-05	4.7711e-06	1.7547e-06	6.0303e-07	1.9284e-07	5.7145e-08	1.5632e-08	3.9347e-09	9.0886e-10	1.9225e-10	3.718e-11	6.5622e-12	1.0545e-12	1.5373e-13	2.0228e-14	2.3866e-15	2.5059e-16	2.3224e-17	1.8847e-18	1.3289e-19	8.0842e-21	4.2153e-22	1.8727e-23	7.0501e-25	2.2374e-26	5.9572e-28	1.3245e-29	2.4481e-31	3.7454e-33	4.7236e-35	4.8908e-37	4.1411e-39	2.8567e-41	1.5996e-43	7.2457e-46	2.6461e-48	7.766e-51	1.8263e-53	3.4315e-56	5.138e-59	6.1155e-62	5.7736e-65	4.3651e-68	6.2347e-71	2.4691e-72	1.5372e-73	9.0293e-75	4.9795e-76	2.5779e-77	1.2528e-78	5.7145e-80	2.4467e-81	9.8327e-83	3.7094e-84	1.3137e-85	4.3684e-87	1.3641e-88	4.0009e-90	1.1025e-91
1.9019e-33	4.0956e-33	8.1457e-33	1.4978e-32	2.5484e-32	4.0151e-32	5.8618e-32	7.9341e-32	9.9611e-32	1.1635e-31	1.5604e-31	2.4827e-30	1.4699e-28	7.4464e-27	3.0884e-25	1.0536e-23	2.9733e-22	6.9801e-21	1.371e-19	2.2659e-18	3.1697e-17	3.7748e-16	3.8495e-15	3.3813e-14	2.5732e-13	1.7066e-12	9.9205e-12	5.0842e-11	2.3104e-10	9.3623e-10	3.4022e-09	1.1149e-08	3.3125e-08	8.9721e-08	2.2271e-07	5.0926e-07	1.0782e-06	2.1241e-06	3.9124e-06	6.7695e-06	1.1053e-05	1.7105e-05	2.5195e-05	3.5468e-05	4.7903e-05	6.2305e-05	7.8316e-05	9.5454e-05	0.00011317	0.0001309	0.00014811	0.00016437	0.00017933	0.00019275	0.00020447	0.00021446	0.00022272	0.00022928	0.00023423	0.00023764	0.00023956	0.00024003	0.00023906	0.00023663	0.00023269	0.00022719	0.00022004	0.00021119	0.0002006	0.00018827	0.0001743	0.00015886	0.00014222	0.00012477	0.00010698	8.9405e-05	7.2599e-05	5.7098e-05	4.3346e-05	3.1649e-05	2.2141e-05	1.4783e-05	9.3807e-06	5.6335e-06	3.1876e-06	1.6915e-06	8.3786e-07	3.8551e-07	1.6395e-07	6.4115e-08	2.294e-08	7.4827e-09	2.265e-09	8.1469e-10	8.8605e-10	2.2507e-09	6.1047e-09	1.5537e-08	3.6861e-08	8.177e-08	1.7025e-07	3.3389e-07	6.1906e-07	1.0889e-06	1.8232e-06	2.9157e-06	4.4683e-06	6.5845e-06	9.3637e-06	1.2901e-05	1.7295e-05	2.2672e-05	2.9209e-05	3.7169e-05	4.6912e-05	5.889e-05	7.3612e-05	9.1583e-05	0.00011325	0.00013898	0.00016906	0.0002038	0.0002437	0.00028964	0.00034324	0.00040722	0.00048576	0.00058493	0.00071293	0.00088036	0.0011004	0.0013891	0.0017663	0.0022565	0.0028913	0.0037119	0.0047738	0.0061519	0.0079481	0.0103	0.013394	0.017476	0.022876	0.030021	0.039466	0.051916	0.068258	0.089582	0.1172	0.15267	0.19775	0.2544	0.3247	0.41074	0.51452	0.63776	0.78176	0.94719	1.134	1.3412	1.5669	1.8084	2.0621	2.3239	2.5892	2.8532	3.1112	3.3588	3.5921	3.8079	4.0036	4.1776	4.3288	4.4567	4.5616	4.6438	4.7042	4.7434	4.7623	4.7614	4.7411	4.7016	4.6428	4.5644	4.4662	4.3476	4.2084	4.0487	3.8686	3.6692	3.4519	3.2188	2.9726	2.717	2.4558	2.1934	1.9345	1.6835	1.4445	1.2213	1.0168	0.83303	0.67114	0.53142	0.41328	0.31549	0.23624	0.17343	0.12473	0.087822	0.060499	0.040745	0.026804	0.017207	0.010766	0.006555	0.0038768	0.0022221	0.0012312	0.00065751	0.00033735	0.00016573	7.7691e-05	3.4628e-05	1.4621e-05	5.8274e-06	2.1843e-06	7.6727e-07	2.5175e-07	7.6926e-08	2.1838e-08	5.7476e-09	1.4001e-09	3.1507e-10	6.5343e-11	1.2444e-11	2.165e-12	3.4192e-13	4.8647e-14	6.1847e-15	6.9691e-16	6.9063e-17	5.9754e-18	4.4837e-19	2.8999e-20	1.6074e-21	7.5956e-23	3.0444e-24	1.03e-25	2.9278e-27	6.961e-29	1.3782e-30	2.2626e-32	3.0674e-34	3.4201e-36	3.1241e-38	2.3291e-40	1.4122e-42	6.9386e-45	2.7537e-47	8.7991e-50	2.257e-52	4.6343e-55	7.5967e-58	9.9187e-61	1.0416e-63	1.8962e-66	8.0828e-68	5.7721e-69	3.9022e-70	2.4802e-71	1.4818e-72	8.3207e-74	4.391e-75	2.1775e-76	1.0147e-77	4.4432e-79	1.8284e-80	7.0708e-82	2.5701e-83	8.7815e-85	2.8211e-86	8.523e-88
1.5617e-35	3.4456e-35	7.0046e-35	1.3134e-34	2.2732e-34	3.6345e-34	5.3718e-34	7.3431e-34	9.2982e-34	1.2167e-33	1.3739e-32	9.8359e-31	6.2231e-29	3.2095e-27	1.3551e-25	4.7089e-24	1.3544e-22	3.2422e-21	6.4968e-20	1.096e-18	1.5654e-17	1.9041e-16	1.9838e-15	1.7806e-14	1.385e-13	9.389e-13	5.5794e-12	2.9231e-11	1.3578e-10	5.6242e-10	2.0888e-09	6.9944e-09	2.1231e-08	5.8734e-08	1.4886e-07	3.4742e-07	7.5046e-07	1.5077e-06	2.8308e-06	4.99e-06	8.296e-06	1.3065e-05	1.9571e-05	2.7999e-05	3.8407e-05	5.0696e-05	6.4622e-05	7.9811e-05	9.5804e-05	0.0001121	0.00012822	0.0001437	0.00015818	0.00017139	0.00018311	0.00019324	0.00020173	0.00020856	0.00021376	0.00021737	0.00021941	0.00021991	0.00021888	0.00021629	0.00021214	0.00020637	0.00019897	0.00018991	0.00017922	0.00016696	0.00015328	0.00013842	0.00012267	0.00010644	9.0188e-05	7.4418e-05	5.9619e-05	4.6225e-05	3.4569e-05	2.4846e-05	1.7099e-05	1.1223e-05	6.9973e-06	4.1261e-06	2.2912e-06	1.1926e-06	5.7916e-07	2.6115e-07	1.088e-07	4.1668e-08	1.4604e-08	4.6959e-09	1.513e-09	9.296e-10	1.8789e-09	5.138e-09	1.3503e-08	3.3065e-08	7.5543e-08	1.6161e-07	3.2493e-07	6.1625e-07	1.1064e-06	1.8867e-06	3.0666e-06	4.7663e-06	7.1068e-06	1.0199e-05	1.4137e-05	1.8994e-05	2.4836e-05	3.1746e-05	3.9857e-05	4.9383e-05	6.0646e-05	7.4066e-05	9.0127e-05	0.00010933	0.00013212	0.0001589	0.00019001	0.00022589	0.00026718	0.00031502	0.00037133	0.00043921	0.00052328	0.00063006	0.00076823	0.00094881	0.0011854	0.0014947	0.001897	0.002418	0.0030905	0.0039581	0.0050793	0.0065333	0.0084276	0.010908	0.014169	0.018471	0.024158	0.031675	0.0416	0.054662	0.071778	0.094068	0.12288	0.15978	0.20656	0.26518	0.33773	0.42627	0.53277	0.65889	0.80585	0.97424	1.1639	1.3737	1.6018	1.8454	2.1007	2.3636	2.6296	2.8938	3.1516	3.3987	3.6312	3.8461	4.0407	4.2136	4.3636	4.4905	4.5945	4.676	4.7357	4.7745	4.7931	4.7921	4.7718	4.7325	4.6739	4.5959	4.4979	4.3797	4.2409	4.0814	3.9016	3.7023	3.4848	3.2514	3.0047	2.7483	2.486	2.2224	1.9619	1.7091	1.4682	1.243	1.0363	0.85027	0.68621	0.54438	0.42427	0.32464	0.24375	0.17948	0.12951	0.091541	0.063332	0.042858	0.028346	0.018307	0.011531	0.0070734	0.0042182	0.0024401	0.0013657	0.00073751	0.00038307	0.00019075	9.0754e-05	4.1117e-05	1.768e-05	7.1916e-06	2.7589e-06	9.9542e-07	3.3698e-07	1.0682e-07	3.1658e-08	8.7569e-09	2.2565e-09	5.4008e-10	1.1957e-10	2.4344e-11	4.5264e-12	7.6253e-13	1.1543e-13	1.5576e-14	1.8591e-15	1.949e-16	1.783e-17	1.4148e-18	9.6832e-20	5.686e-21	2.8501e-22	1.2136e-23	4.3694e-25	1.324e-26	3.3614e-28	7.1198e-30	1.2528e-31	1.8236e-33	2.1874e-35	2.1535e-37	1.7337e-39	1.1372e-41	6.057e-44	2.6107e-46	9.0777e-49	2.5387e-51	5.6943e-54	1.0219e-56	1.4828e-59	3.5362e-62	1.65e-63	1.3472e-64	1.0452e-65	7.6354e-67	5.2503e-68	3.3977e-69	2.0691e-70	1.1855e-71	6.3906e-73	3.2408e-74	1.5461e-75	6.9392e-77	2.9301e-78	1.1641e-79	4.3522e-81	1.5314e-82	5.0726e-84
1.0168e-37	2.2983e-37	4.7753e-37	9.1295e-37	1.6073e-36	2.6079e-36	3.902e-36	5.3891e-36	7.2607e-36	5.6842e-35	4.8154e-33	3.8208e-31	2.4618e-29	1.2926e-27	5.5597e-26	1.9697e-24	5.7794e-23	1.4123e-21	2.8902e-20	4.9817e-19	7.2736e-18	9.0471e-17	9.6419e-16	8.8551e-15	7.0485e-14	4.8906e-13	2.9748e-12	1.5954e-11	7.5861e-11	3.2162e-10	1.2224e-09	4.1885e-09	1.3007e-08	3.6799e-08	9.5355e-08	2.2745e-07	5.0192e-07	1.0297e-06	1.9731e-06	3.5479e-06	6.0131e-06	9.6476e-06	1.4714e-05	2.1418e-05	2.9868e-05	4.0051e-05	5.1821e-05	6.4911e-05	7.8958e-05	9.3539e-05	0.00010822	0.00012257	0.00013622	0.00014886	0.00016026	0.00017024	0.00017871	0.0001856	0.00019089	0.00019459	0.00019669	0.00019721	0.00019614	0.00019349	0.00018924	0.00018338	0.00017594	0.00016694	0.00015645	0.0001446	0.00013157	0.00011764	0.00010313	8.844e-05	7.3994e-05	6.0235e-05	4.7566e-05	3.6322e-05	2.6732e-05	1.8894e-05	1.2777e-05	8.2351e-06	5.0383e-06	2.9137e-06	1.5858e-06	8.0861e-07	3.845e-07	1.6969e-07	6.9163e-08	2.591e-08	8.9004e-09	2.8823e-09	1.2019e-09	1.5626e-09	4.0894e-09	1.1071e-08	2.8044e-08	6.6158e-08	1.4581e-07	3.0137e-07	5.8627e-07	1.0774e-06	1.8768e-06	3.1099e-06	4.9179e-06	7.4463e-06	1.0829e-05	1.5176e-05	2.056e-05	2.7018e-05	3.4567e-05	4.3235e-05	5.3094e-05	6.4309e-05	7.7154e-05	9.2021e-05	0.00010938	0.00012974	0.00015358	0.00018136	0.00021352	0.00025063	0.00029355	0.00034368	0.0004033	0.00047591	0.0005666	0.00068233	0.0008322	0.0010277	0.0012828	0.0016145	0.002044	0.0025978	0.0033101	0.0042265	0.0054085	0.0069392	0.0089316	0.011538	0.014963	0.019479	0.025441	0.033314	0.043693	0.057332	0.075168	0.098345	0.12823	0.16641	0.21469	0.27501	0.34945	0.44004	0.54869	0.67699	0.82608	0.99646	1.1879	1.3992	1.6283	1.8725	2.128	2.3907	2.656	2.9191	3.1756	3.4211	3.6519	3.8649	4.0579	4.2291	4.3777	4.5034	4.6063	4.6869	4.7461	4.7845	4.8029	4.8018	4.7817	4.7426	4.6844	4.6068	4.5094	4.3918	4.2537	4.0949	3.9157	3.7171	3.5002	3.2673	3.021	2.7649	2.5028	2.2391	1.9783	1.7251	1.4835	1.2574	1.0497	0.86261	0.69733	0.55424	0.43285	0.33199	0.24993	0.18457	0.13364	0.094816	0.065878	0.044796	0.029789	0.019355	0.012275	0.0075875	0.0045635	0.0026652	0.0015077	0.00082387	0.00043359	0.00021907	0.00010593	4.8864e-05	2.1439e-05	8.9209e-06	3.5121e-06	1.3054e-06	4.5732e-07	1.5078e-07	4.6723e-08	1.358e-08	3.6914e-09	9.3444e-10	2.1899e-10	4.718e-11	9.2698e-12	1.6475e-12	2.6272e-13	3.7308e-14	4.6847e-15	5.1677e-16	4.9778e-17	4.1632e-18	3.0073e-19	1.8666e-20	9.906e-22	4.4737e-23	1.7113e-24	5.5197e-26	1.4945e-27	3.382e-29	6.3702e-31	9.9454e-33	1.2819e-34	1.3589e-36	1.1803e-38	8.3689e-41	4.8279e-43	2.2585e-45	8.5401e-48	2.6027e-50	6.3763e-53	1.2712e-55	4.0607e-58	2.1162e-59	1.9691e-60	1.748e-61	1.4632e-62	1.1546e-63	8.5871e-65	6.0178e-66	3.9732e-67	2.4712e-68	1.4477e-69	7.9881e-71	4.1512e-72	2.0318e-73	9.3659e-75	4.0666e-76	1.6633e-77	6.4099e-79	2.3276e-80
5.2233e-40	1.2094e-39	2.5679e-39	5.0054e-39	8.9634e-39	1.4757e-38	2.2355e-38	3.2038e-38	1.7728e-37	1.7159e-35	1.7133e-33	1.3848e-31	9.0819e-30	4.8576e-28	2.1303e-26	7.7006e-25	2.3071e-23	5.76e-22	1.2051e-20	2.1247e-19	3.1745e-18	4.0423e-17	4.4119e-16	4.1507e-15	3.3852e-14	2.4071e-13	1.5006e-12	8.2487e-12	4.0201e-11	1.7468e-10	6.8038e-10	2.3885e-09	7.5977e-09	2.2013e-08	5.8394e-08	1.4254e-07	3.2174e-07	6.7482e-07	1.3213e-06	2.4265e-06	4.1973e-06	6.8686e-06	1.0677e-05	1.5829e-05	2.2464e-05	3.063e-05	4.0266e-05	5.1198e-05	6.3159e-05	7.5811e-05	8.8779e-05	0.00010168	0.00011416	0.00012589	0.00013663	0.00014616	0.00015434	0.00016107	0.00016628	0.00016994	0.00017203	0.00017254	0.00017148	0.00016884	0.00016464	0.0001589	0.00015166	0.000143	0.00013303	0.00012192	0.00010989	9.7228e-05	8.4261e-05	7.136e-05	5.8906e-05	4.7267e-05	3.676e-05	2.7621e-05	1.9985e-05	1.3876e-05	9.211e-06	5.8233e-06	3.4922e-06	1.9783e-06	1.0541e-06	5.2591e-07	2.4456e-07	1.055e-07	4.2016e-08	1.5388e-08	5.2162e-09	1.8504e-09	1.4012e-09	3.1077e-09	8.5614e-09	2.2463e-08	5.4845e-08	1.2483e-07	2.6584e-07	5.3168e-07	1.0023e-06	1.7875e-06	3.0262e-06	4.8799e-06	7.5202e-06	1.1111e-05	1.5787e-05	2.164e-05	2.8705e-05	3.6968e-05	4.6381e-05	5.6904e-05	6.8546e-05	8.1415e-05	9.5748e-05	0.00011192	0.00013039	0.00015171	0.00017641	0.00020504	0.00023817	0.00027654	0.00032124	0.00037398	0.0004374	0.00051545	0.00061365	0.00073942	0.00090227	0.001114	0.001389	0.0017448	0.0022031	0.0027911	0.0035447	0.0045112	0.0057548	0.0073622	0.0094515	0.012182	0.015765	0.020484	0.026707	0.034914	0.045716	0.059885	0.078376	0.10235	0.13318	0.17247	0.222	0.28373	0.35966	0.45179	0.56197	0.69172	0.84207	1.0134	1.2055	1.417	1.646	1.8894	2.1437	2.4048	2.668	2.9289	3.1828	3.4257	3.6539	3.8645	4.0551	4.2243	4.3711	4.4953	4.597	4.6768	4.7354	4.7735	4.7917	4.7907	4.7708	4.7321	4.6744	4.5974	4.5007	4.3839	4.2467	4.0889	3.9109	3.7134	3.4979	3.2663	3.0214	2.7666	2.5057	2.2432	1.9835	1.7311	1.4902	1.2645	1.057	0.8698	0.70428	0.56079	0.43887	0.33738	0.25465	0.18862	0.13703	0.097585	0.068091	0.046523	0.031105	0.020335	0.012985	0.0080888	0.0049076	0.0028943	0.0016553	0.00091572	0.00048855	0.00025063	0.00012326	5.7944e-05	2.5967e-05	1.1067e-05	4.4767e-06	1.716e-06	6.2252e-07	2.1344e-07	6.9044e-08	2.1016e-08	5.9952e-09	1.594e-09	3.9231e-10	8.8686e-11	1.8266e-11	3.4005e-12	5.678e-13	8.4436e-14	1.1109e-14	1.2852e-15	1.2999e-16	1.1433e-17	8.6983e-19	5.6963e-20	3.1953e-21	1.528e-22	6.201e-24	2.1259e-25	6.1297e-27	1.4801e-28	2.9806e-30	4.985e-32	6.897e-34	7.8637e-36	7.3611e-38	5.6371e-40	3.5195e-42	1.7855e-44	7.3379e-47	2.4365e-49	6.635e-52	2.8923e-54	1.719e-55	1.8171e-56	1.8396e-57	1.7591e-58	1.588e-59	1.3532e-60	1.0881e-61	8.2547e-63	5.9072e-64	3.9869e-65	2.5376e-66	1.523e-67	8.6191e-69	4.5991e-70	2.3139e-71	1.0978e-72	4.9113e-74	2.0723e-75	8.2485e-77
2.1068e-42	4.9958e-42	1.084e-41	2.1539e-41	3.9227e-41	6.5531e-41	1.0186e-40	4.2058e-40	4.4316e-38	5.5842e-36	5.6818e-34	4.6721e-32	3.1203e-30	1.7013e-28	7.6119e-27	2.8097e-25	8.602e-24	2.1962e-22	4.7018e-21	8.4873e-20	1.299e-18	1.6952e-17	1.8969e-16	1.8302e-15	1.5312e-14	1.1171e-13	7.1463e-13	4.0312e-12	2.0162e-11	8.9896e-11	3.5927e-10	1.2939e-09	4.2212e-09	1.254e-08	3.4097e-08	8.5274e-08	1.9712e-07	4.2321e-07	8.4776e-07	1.5917e-06	2.8132e-06	4.7005e-06	7.4552e-06	1.1268e-05	1.6289e-05	2.2606e-05	3.0219e-05	3.9036e-05	4.8877e-05	5.9486e-05	7.0561e-05	8.1774e-05	9.2798e-05	0.00010333	0.0001131	0.00012189	0.00012951	0.00013585	0.00014079	0.00014429	0.00014629	0.00014679	0.00014577	0.00014324	0.00013923	0.0001338	0.000127	0.00011896	0.00010981	9.9743e-05	8.9009e-05	7.7883e-05	6.6681e-05	5.5731e-05	4.5356e-05	3.5846e-05	2.7431e-05	2.0263e-05	1.4401e-05	9.8125e-06	6.3873e-06	3.9568e-06	2.3234e-06	1.2879e-06	6.7101e-07	3.2718e-07	1.4861e-07	6.2588e-08	2.4333e-08	8.7267e-09	3.0132e-09	1.4863e-09	2.316e-09	6.2572e-09	1.6984e-08	4.3012e-08	1.0134e-07	2.229e-07	4.5938e-07	8.9042e-07	1.6292e-06	2.8238e-06	4.6527e-06	7.3119e-06	1.0996e-05	1.5874e-05	2.2067e-05	2.9628e-05	3.8537e-05	4.8711e-05	6.0029e-05	7.2375e-05	8.5697e-05	0.00010005	0.00011565	0.00013286	0.00015217	0.00017416	0.00019947	0.00022874	0.0002627	0.00030229	0.00034884	0.0004044	0.00047199	0.00055598	0.00066236	0.00079897	0.00097569	0.0012047	0.0015007	0.0018816	0.0023696	0.002993	0.0037887	0.0048059	0.006111	0.0077944	0.0099783	0.012827	0.016562	0.021472	0.027939	0.036453	0.047641	0.062286	0.081356	0.10602	0.13766	0.17786	0.22839	0.29117	0.36817	0.46132	0.57238	0.7028	0.85353	1.0249	1.2165	1.427	1.6544	1.8958	2.1476	2.4057	2.6657	2.923	3.1733	3.4127	3.6375	3.8449	4.0327	4.1994	4.3441	4.4667	4.5671	4.646	4.704	4.7418	4.76	4.7591	4.7395	4.7012	4.644	4.5678	4.472	4.3562	4.2201	4.0637	3.8873	3.6915	3.4779	3.2484	3.0058	2.7533	2.4949	2.2347	1.9773	1.7271	1.4881	1.264	1.0578	0.87172	0.70694	0.56391	0.4422	0.34072	0.25784	0.19154	0.13961	0.099797	0.06993	0.048009	0.032273	0.021227	0.013649	0.0085686	0.0052446	0.0031237	0.0018065	0.0010118	0.00054735	0.00028516	0.00014268	6.8373e-05	3.1307e-05	1.3669e-05	5.6818e-06	2.2454e-06	8.4265e-07	2.9984e-07	1.0093e-07	3.2031e-08	9.5354e-09	2.6461e-09	6.7947e-10	1.6018e-10	3.4393e-11	6.6742e-12	1.1622e-12	1.8036e-13	2.4791e-14	3.0004e-15	3.1797e-16	2.935e-17	2.3477e-18	1.6193e-19	9.585e-21	4.846e-22	2.0831e-23	7.5795e-25	2.3241e-26	5.9799e-28	1.2857e-29	2.3007e-31	3.4128e-33	4.1806e-35	4.2134e-37	3.4814e-39	2.3503e-41	1.2921e-43	5.7703e-46	2.1336e-48	1.2906e-50	8.9207e-52	1.068e-52	1.2289e-53	1.3379e-54	1.3773e-55	1.3404e-56	1.2328e-57	1.0713e-58	8.7947e-60	6.8186e-61	4.9921e-62	3.4508e-63	2.252e-64	1.3873e-65	8.0677e-67	4.4287e-68	2.295e-69	1.1227e-70	5.1856e-72	2.2617e-73
6.6411e-45	1.6126e-44	3.5746e-44	7.2396e-44	1.3408e-43	2.2883e-43	7.616e-43	8.2703e-41	1.3178e-38	1.6928e-36	1.751e-34	1.4654e-32	9.9714e-31	5.5449e-29	2.5328e-27	9.5528e-26	2.9909e-24	7.8151e-23	1.7135e-21	3.1698e-20	4.9745e-19	6.6595e-18	7.6476e-17	7.5754e-16	6.5086e-15	4.8773e-14	3.2054e-13	1.8577e-12	9.5459e-12	4.3728e-11	1.7953e-10	6.6407e-10	2.2247e-09	6.7845e-09	1.893e-08	4.8563e-08	1.151e-07	2.5323e-07	5.1953e-07	9.9838e-07	1.8049e-06	3.0824e-06	4.993e-06	7.7009e-06	1.1351e-05	1.6048e-05	2.1833e-05	2.8675e-05	3.6467e-05	4.5034e-05	5.4144e-05	6.353e-05	7.2911e-05	8.2011e-05	9.0573e-05	9.837e-05	0.00010521	0.00011095	0.00011547	0.00011867	0.00012052	0.00012098	0.00012004	0.00011771	0.00011404	0.00010909	0.00010295	9.576e-05	8.7674e-05	7.8898e-05	6.967e-05	6.0255e-05	5.0934e-05	4.1984e-05	3.3662e-05	2.6183e-05	1.97e-05	1.4293e-05	9.9686e-06	6.66e-06	4.247e-06	2.5753e-06	1.4791e-06	8.0137e-07	4.0784e-07	1.9412e-07	8.6028e-08	3.5336e-08	1.341e-08	4.7622e-09	1.8815e-09	1.7929e-09	4.3487e-09	1.2117e-08	3.1882e-08	7.7954e-08	1.7752e-07	3.779e-07	7.5491e-07	1.4203e-06	2.526e-06	4.2617e-06	6.8438e-06	1.0496e-05	1.5425e-05	2.1787e-05	2.9669e-05	3.9068e-05	4.9892e-05	6.1977e-05	7.5122e-05	8.9143e-05	0.00010393	0.0001195	0.00013606	0.00015397	0.00017378	0.00019614	0.00022176	0.00025144	0.00028607	0.00032678	0.00037519	0.00043366	0.00050561	0.00059585	0.00071078	0.00085867	0.0010498	0.0012965	0.001614	0.0020205	0.0025388	0.0031979	0.004036	0.0051037	0.0064698	0.0082272	0.010502	0.013464	0.01734	0.022428	0.029117	0.037909	0.049439	0.064499	0.084063	0.1093	0.14158	0.18247	0.23372	0.2972	0.37482	0.46843	0.57972	0.71003	0.86023	1.0306	1.2206	1.4289	1.6536	1.8917	2.1396	2.3935	2.649	2.9017	3.1474	3.3823	3.6029	3.8065	3.991	4.1549	4.2973	4.418	4.5171	4.595	4.6524	4.6898	4.708	4.7073	4.6881	4.6503	4.5938	4.5184	4.4236	4.309	4.1743	4.0196	3.8451	3.6516	3.4406	3.214	2.9745	2.7253	2.4704	2.2138	1.9599	1.713	1.4772	1.256	1.0523	0.86832	0.70525	0.56353	0.44278	0.34194	0.25943	0.19328	0.14134	0.10141	0.071361	0.049225	0.033269	0.022016	0.014254	0.0090183	0.0055683	0.0033494	0.0019585	0.0011106	0.0006091	0.00032224	0.000164	8.0104e-05	3.7466e-05	1.6751e-05	7.149e-06	2.909e-06	1.1271e-06	4.1504e-07	1.4484e-07	4.7701e-08	1.4743e-08	4.2475e-09	1.1322e-09	2.7703e-10	6.175e-11	1.2447e-11	2.2532e-12	3.6395e-13	5.214e-14	6.5874e-15	7.2999e-16	7.0584e-17	5.9252e-18	4.2971e-19	2.6795e-20	1.4299e-21	6.5007e-23	2.5065e-24	8.1614e-26	2.2345e-27	5.1229e-29	9.7953e-31	1.5559e-32	2.0454e-34	2.2171e-36	1.9746e-38	1.4401e-40	8.5801e-43	4.2839e-45	3.6534e-47	2.9848e-48	4.0353e-49	5.259e-50	6.4959e-51	7.5999e-52	8.4188e-53	8.8277e-54	8.7592e-55	8.2224e-56	7.3003e-57	6.1291e-58	4.8652e-59	3.6507e-60	2.5893e-61	1.7357e-62	1.0996e-63	6.5828e-65	3.7245e-66	1.9916e-67	1.0065e-68	4.8088e-70
1.6287e-47	4.0488e-47	9.1671e-47	1.8921e-46	3.576e-46	1.0437e-45	1.113e-43	2.2454e-41	3.6499e-39	4.7616e-37	5.0081e-35	4.267e-33	2.9595e-31	1.6793e-29	7.8354e-28	3.0216e-26	9.6812e-25	2.5908e-23	5.8223e-22	1.1047e-20	1.7791e-19	2.4456e-18	2.8851e-17	2.9369e-16	2.594e-15	1.9987e-14	1.3509e-13	8.0525e-13	4.256e-12	2.0052e-11	8.4666e-11	3.2202e-10	1.109e-09	3.4758e-09	9.9634e-09	2.6248e-08	6.3855e-08	1.4412e-07	3.0315e-07	5.9689e-07	1.1048e-06	1.9304e-06	3.1967e-06	5.036e-06	7.5754e-06	1.0919e-05	1.5131e-05	2.0221e-05	2.6139e-05	3.2774e-05	3.9964e-05	4.7504e-05	5.5165e-05	6.271e-05	6.9909e-05	7.6546e-05	8.2436e-05	8.7419e-05	9.1369e-05	9.4193e-05	9.5825e-05	9.6228e-05	9.5396e-05	9.3344e-05	9.012e-05	8.5799e-05	8.0485e-05	7.4316e-05	6.7461e-05	6.0117e-05	5.2504e-05	4.4859e-05	3.7415e-05	3.0397e-05	2.3994e-05	1.8354e-05	1.3567e-05	9.6611e-06	6.6065e-06	4.3237e-06	2.6985e-06	1.6002e-06	8.9808e-07	4.7511e-07	2.3594e-07	1.0951e-07	4.7301e-08	1.8936e-08	7.0388e-09	2.5967e-09	1.5658e-09	2.9229e-09	8.162e-09	2.2314e-08	5.6749e-08	1.3414e-07	2.9571e-07	6.103e-07	1.1836e-06	2.165e-06	3.7483e-06	6.1644e-06	9.6625e-06	1.4483e-05	2.0826e-05	2.882e-05	3.8494e-05	4.9774e-05	6.2483e-05	7.6375e-05	9.117e-05	0.00010662	0.00012257	0.00013903	0.00015619	0.00017446	0.00019443	0.00021684	0.00024251	0.00027237	0.00030747	0.00034917	0.00039936	0.00046072	0.00053706	0.0006336	0.00075719	0.00091646	0.001122	0.0013866	0.0017256	0.0021577	0.0027062	0.0034009	0.0042808	0.0053981	0.0068233	0.0086519	0.011013	0.014081	0.018087	0.023336	0.030225	0.03926	0.051083	0.06649	0.086453	0.11213	0.14488	0.18624	0.23792	0.30172	0.37948	0.47299	0.58383	0.71325	0.86204	1.0304	1.2177	1.4228	1.6435	1.877	2.1199	2.3684	2.6183	2.8654	3.1056	3.3352	3.5509	3.7502	3.9308	4.0914	4.2312	4.3499	4.4475	4.5244	4.5811	4.6183	4.6364	4.636	4.6171	4.5799	4.5242	4.4497	4.356	4.2427	4.1098	3.957	3.7849	3.5942	3.3864	3.1634	2.9278	2.683	2.4326	2.1807	1.9315	1.6892	1.4577	1.2405	1.0405	0.85966	0.69924	0.55968	0.44061	0.34102	0.25938	0.1938	0.14219	0.1024	0.072358	0.050151	0.034077	0.022688	0.014789	0.0094294	0.0058727	0.0035669	0.0021084	0.0012101	0.0006727	0.00036126	0.00018695	9.3015e-05	4.4408e-05	2.0313e-05	8.8897e-06	3.7179e-06	1.4836e-06	5.6358e-07	2.0312e-07	6.9127e-08	2.2083e-08	6.5762e-09	1.812e-09	4.5848e-10	1.0574e-10	2.2074e-11	4.1433e-12	6.9492e-13	1.0354e-13	1.3628e-14	1.576e-15	1.5934e-16	1.4012e-17	1.0666e-18	6.9944e-20	3.9333e-21	1.8882e-22	7.7035e-24	2.6595e-25	7.7369e-27	1.8888e-28	3.854e-30	6.5473e-32	9.2257e-34	1.0743e-35	1.0303e-37	8.122e-40	5.45e-42	6.6574e-44	6.5033e-45	9.8995e-46	1.4559e-46	2.033e-47	2.6934e-48	3.3843e-49	4.0317e-50	4.5522e-51	4.8702e-52	4.9354e-53	4.7366e-54	4.304e-55	3.7021e-56	3.0139e-57	2.322e-58	1.6927e-59	1.1676e-60	7.6195e-62	4.7046e-63	2.7484e-64	1.5192e-65	7.9466e-67
3.0943e-50	7.8727e-50	1.8203e-49	3.8357e-49	1.0597e-48	1.0791e-46	2.7581e-44	5.6825e-42	9.368e-40	1.2412e-37	1.3276e-35	1.1519e-33	8.1465e-32	4.7188e-30	2.25e-28	8.8762e-27	2.9121e-25	7.987e-24	1.841e-22	3.5852e-21	5.9306e-20	8.3779e-19	1.0162e-17	1.064e-16	9.67e-16	7.669e-15	5.3359e-14	3.2747e-13	1.7821e-12	8.6449e-12	3.7577e-11	1.4712e-10	5.2141e-10	1.6812e-09	4.9562e-09	1.3422e-08	3.355e-08	7.776e-08	1.6786e-07	3.3898e-07	6.4304e-07	1.1506e-06	1.9495e-06	3.1398e-06	4.8239e-06	7.0947e-06	1.0021e-05	1.3637e-05	1.793e-05	2.2842e-05	2.8265e-05	3.4055e-05	4.0036e-05	4.6016e-05	5.1802e-05	5.7203e-05	6.2047e-05	6.6182e-05	6.9485e-05	7.1858e-05	7.3235e-05	7.3576e-05	7.2872e-05	7.1144e-05	6.8438e-05	6.4834e-05	6.0437e-05	5.5381e-05	4.9826e-05	4.3951e-05	3.7948e-05	3.2012e-05	2.6331e-05	2.1071e-05	1.6365e-05	1.2302e-05	8.9271e-06	6.2342e-06	4.1766e-06	2.6754e-06	1.6328e-06	9.4601e-07	5.1831e-07	2.6748e-07	1.2949e-07	5.855e-08	2.4626e-08	9.6148e-09	3.5657e-09	1.6096e-09	1.9743e-09	5.2061e-09	1.4729e-08	3.9044e-08	9.6042e-08	2.1982e-07	4.6991e-07	9.4175e-07	1.776e-06	3.1631e-06	5.3396e-06	8.5728e-06	1.3135e-05	1.9268e-05	2.7149e-05	3.6855e-05	4.8345e-05	6.1459e-05	7.5932e-05	9.1434e-05	0.00010762	0.00012419	0.00014097	0.00015796	0.00017538	0.00019367	0.0002135	0.00023569	0.00026117	0.00029099	0.00032638	0.00036891	0.00042072	0.00048483	0.00056542	0.0006681	0.00080014	0.00097055	0.0011902	0.0014723	0.0018324	0.0022895	0.0028676	0.0035969	0.0045175	0.0056826	0.0071643	0.00906	0.011502	0.014667	0.018791	0.024183	0.031244	0.040485	0.052549	0.068229	0.088488	0.11447	0.1475	0.18909	0.24088	0.30462	0.38207	0.47491	0.58463	0.71239	0.8589	1.0243	1.2079	1.4086	1.6242	1.8521	2.0889	2.3309	2.5742	2.8147	3.0485	3.2721	3.4823	3.6765	3.8529	4.0099	4.1468	4.2632	4.3592	4.4349	4.491	4.5278	4.546	4.5457	4.5273	4.4907	4.4358	4.3623	4.2698	4.1582	4.0271	3.8767	3.7073	3.52	3.3159	3.0973	2.8666	2.627	2.3822	2.136	1.8926	1.656	1.43	1.218	1.0226	0.84589	0.68902	0.55241	0.43572	0.33798	0.25771	0.19311	0.14214	0.10274	0.072906	0.05077	0.034682	0.02323	0.015245	0.0097938	0.0061516	0.0037717	0.0022531	0.0013084	0.00073688	0.00040148	0.00021112	0.00010692	5.2059e-05	2.4332e-05	1.0902e-05	4.6768e-06	1.917e-06	7.489e-07	2.7776e-07	9.731e-08	3.2006e-08	9.8153e-09	2.7861e-09	7.2665e-10	1.7291e-10	3.7286e-11	7.2393e-12	1.258e-12	1.9452e-13	2.6618e-14	3.2066e-15	3.3833e-16	3.1111e-17	2.4813e-18	1.7083e-19	1.0107e-20	5.1148e-22	2.2045e-23	8.0577e-25	2.4871e-26	6.4563e-28	1.404e-29	2.5477e-31	3.8434e-33	4.8035e-35	4.9675e-37	4.4661e-39	7.9377e-41	9.3236e-42	1.5932e-42	2.6342e-43	4.143e-44	6.1928e-45	8.7941e-46	1.186e-46	1.5184e-47	1.8449e-48	2.1267e-49	2.3252e-50	2.4105e-51	2.3691e-52	2.2068e-53	1.9479e-54	1.6292e-55	1.2908e-56	9.6883e-58	6.8879e-59	4.6384e-60	2.9586e-61	1.7877e-62	1.0233e-63
4.5353e-53	1.1806e-52	2.7901e-52	7.7553e-52	7.5375e-50	2.4413e-47	6.381e-45	1.3311e-42	2.2252e-40	2.9943e-38	3.2577e-36	2.879e-34	2.0765e-32	1.2282e-30	5.9873e-29	2.4174e-27	8.1253e-26	2.2852e-24	5.4061e-23	1.0813e-21	1.8385e-20	2.6711e-19	3.3339e-18	3.5937e-17	3.3636e-16	2.748e-15	1.9701e-14	1.246e-13	6.9882e-13	3.4937e-12	1.565e-11	6.313e-11	2.3048e-10	7.6533e-10	2.3226e-09	6.4722e-09	1.6639e-08	3.964e-08	8.7903e-08	1.8222e-07	3.5458e-07	6.5029e-07	1.1284e-06	1.8593e-06	2.92e-06	4.3853e-06	6.3186e-06	8.7614e-06	1.1725e-05	1.5184e-05	1.9079e-05	2.3311e-05	2.7757e-05	3.2271e-05	3.6698e-05	4.0883e-05	4.4675e-05	4.7943e-05	5.0571e-05	5.247e-05	5.3575e-05	5.3849e-05	5.3284e-05	5.1897e-05	4.9736e-05	4.6875e-05	4.3411e-05	3.9466e-05	3.518e-05	3.0704e-05	2.6197e-05	2.1809e-05	1.7682e-05	1.3929e-05	1.0637e-05	7.8535e-06	5.5907e-06	3.826e-06	2.5093e-06	1.572e-06	9.3738e-07	5.3016e-07	2.8332e-07	1.425e-07	6.7181e-08	2.9567e-08	1.2107e-08	4.6406e-09	1.8506e-09	1.4298e-09	3.1741e-09	9.1632e-09	2.5345e-08	6.5045e-08	1.5498e-07	3.4405e-07	7.1437e-07	1.3925e-06	2.5578e-06	4.4428e-06	7.3235e-06	1.1496e-05	1.7242e-05	2.4789e-05	3.427e-05	4.5697e-05	5.8946e-05	7.3764e-05	8.98e-05	0.00010665	0.00012392	0.00014127	0.00015853	0.00017572	0.00019308	0.00021112	0.00023057	0.00025232	0.00027741	0.00030702	0.00034252	0.00038569	0.00043891	0.00050552	0.00059005	0.00069852	0.00083857	0.0010196	0.0012527	0.0015515	0.0019317	0.0024129	0.0030193	0.0037818	0.0047411	0.0059513	0.0074857	0.0094434	0.011958	0.01521	0.019438	0.024953	0.032158	0.041564	0.053812	0.069686	0.090135	0.11628	0.14941	0.19097	0.24257	0.30586	0.38251	0.47412	0.58208	0.70746	0.85087	1.0124	1.1914	1.3867	1.5962	1.8174	2.047	2.2816	2.5174	2.7504	2.977	3.1939	3.3979	3.5867	3.7583	3.9114	4.0451	4.159	4.2531	4.3276	4.3829	4.4194	4.4374	4.4374	4.4194	4.3834	4.3294	4.257	4.166	4.0561	3.9272	3.7794	3.6133	3.4297	3.2302	3.0166	2.7915	2.5581	2.3197	2.0803	1.8438	1.614	1.3946	1.1887	0.99895	0.82727	0.67479	0.54187	0.42821	0.33288	0.25446	0.19121	0.1412	0.10244	0.072999	0.051074	0.035075	0.023633	0.015613	0.010105	0.0063992	0.0039596	0.0023895	0.0014033	0.00080023	0.00044206	0.00023604	0.00012158	6.0304e-05	2.8762e-05	1.3172e-05	5.7832e-06	2.4289e-06	9.7288e-07	3.7011e-07	1.3303e-07	4.4898e-08	1.4133e-08	4.1201e-09	1.1046e-09	2.7048e-10	6.0101e-11	1.2043e-11	2.1635e-12	3.4647e-13	4.9196e-14	6.1613e-15	6.7718e-16	6.4995e-17	5.4216e-18	3.9121e-19	2.4308e-20	1.2948e-21	5.8863e-23	2.2744e-24	7.4376e-26	2.0502e-27	4.7453e-29	9.1869e-31	1.4825e-32	1.9947e-34	2.4022e-36	6.3005e-38	8.8934e-39	1.7005e-39	3.1488e-40	5.5564e-41	9.335e-42	1.4925e-42	2.2702e-43	3.2835e-44	4.5146e-45	5.8985e-46	7.3211e-47	8.6295e-48	9.6572e-49	1.0258e-49	1.0341e-50	9.8899e-52	8.9729e-53	7.7217e-54	6.3022e-55	4.8778e-56	3.5802e-57	2.4919e-58	1.6448e-59	1.0296e-60
5.1079e-56	1.361e-55	3.9801e-55	3.7971e-53	1.5583e-50	5.1688e-48	1.3652e-45	2.8825e-43	4.8857e-41	6.6765e-39	7.3883e-37	6.6512e-35	4.8935e-33	2.9564e-31	1.4738e-29	6.0926e-28	2.0989e-26	6.0563e-25	1.4712e-23	3.0244e-22	5.2886e-21	7.9077e-20	1.0163e-18	1.1287e-17	1.0888e-16	9.1712e-16	6.7807e-15	4.4232e-14	2.559e-13	1.3197e-12	6.0972e-12	2.5365e-11	9.5483e-11	3.2681e-10	1.0219e-09	2.9329e-09	7.7616e-09	1.9024e-08	4.3374e-08	9.238e-08	1.8455e-07	3.4719e-07	6.1743e-07	1.0418e-06	1.6736e-06	2.5684e-06	3.7774e-06	5.3405e-06	7.2784e-06	9.588e-06	1.2239e-05	1.5172e-05	1.8306e-05	2.1536e-05	2.4749e-05	2.7823e-05	3.0639e-05	3.3087e-05	3.507e-05	3.651e-05	3.7351e-05	3.7561e-05	3.713e-05	3.6075e-05	3.4439e-05	3.2285e-05	2.9697e-05	2.6779e-05	2.3643e-05	2.041e-05	1.72e-05	1.4126e-05	1.1282e-05	8.7447e-06	6.5622e-06	4.7555e-06	3.3189e-06	2.2243e-06	1.427e-06	8.7364e-07	5.0862e-07	2.8059e-07	1.4613e-07	7.1571e-08	3.2835e-08	1.4057e-08	5.6148e-09	2.1798e-09	1.1784e-09	1.8919e-09	5.3766e-09	1.5498e-08	4.159e-08	1.0343e-07	2.3909e-07	5.157e-07	1.0418e-06	1.9786e-06	3.5453e-06	6.0152e-06	9.6975e-06	1.4906e-05	2.1916e-05	3.0924e-05	4.2005e-05	5.509e-05	6.9966e-05	8.6291e-05	0.00010364	0.00012153	0.00013955	0.00015736	0.00017478	0.00019187	0.00020892	0.0002265	0.00024539	0.00026657	0.00029114	0.00032039	0.00035584	0.00039944	0.00045382	0.00052259	0.00061065	0.00072437	0.00087175	0.0010625	0.0013082	0.0016225	0.0020217	0.0025254	0.0031584	0.0039519	0.0049471	0.0061989	0.0077814	0.0097949	0.012375	0.015702	0.020017	0.025633	0.032951	0.04248	0.054851	0.070837	0.091362	0.11752	0.15054	0.19185	0.24294	0.30539	0.3808	0.47065	0.57623	0.69852	0.83807	0.9949	1.1684	1.3574	1.5599	1.7734	1.995	2.2213	2.4487	2.6735	2.8922	3.1017	3.299	3.4818	3.6483	3.7971	3.9273	4.0384	4.1305	4.2035	4.2579	4.2939	4.3118	4.3119	4.2943	4.2591	4.2059	4.1348	4.0453	3.9374	3.811	3.6663	3.5038	3.3246	3.1301	2.9222	2.7036	2.4771	2.2462	2.0146	1.7859	1.5638	1.3519	1.1531	0.96993	0.80413	0.65679	0.52826	0.41823	0.32582	0.24969	0.18816	0.13941	0.10151	0.072637	0.05106	0.03525	0.02389	0.015885	0.010355	0.0066105	0.0041265	0.0025145	0.0014927	0.00086134	0.00048211	0.00026118	0.00013669	6.8996e-05	3.3535e-05	1.5671e-05	7.0273e-06	3.0166e-06	1.2355e-06	4.807e-07	1.7673e-07	6.1023e-08	1.966e-08	5.8704e-09	1.6136e-09	4.056e-10	9.2656e-11	1.9119e-11	3.5433e-12	5.8647e-13	8.6233e-14	1.1206e-14	1.2806e-15	1.2805e-16	1.1152e-17	8.4194e-19	5.4852e-20	3.0702e-21	1.47e-22	5.9957e-24	2.0745e-25	6.0652e-27	1.4926e-28	3.0815e-30	5.3525e-32	8.67e-34	3.388e-35	5.7095e-36	1.2174e-36	2.5146e-37	4.959e-38	9.3276e-39	1.6727e-39	2.8584e-40	4.653e-41	7.2123e-42	1.0641e-42	1.4938e-43	1.9947e-44	2.5328e-45	3.0573e-46	3.5073e-47	3.823e-48	3.9586e-49	3.8932e-50	3.6361e-51	3.2245e-52	2.7151e-53	2.1704e-54	1.6471e-55	1.1868e-56	8.1185e-58
4.4066e-59	1.3998e-58	1.3823e-56	7.1887e-54	3.0243e-51	1.0112e-48	2.6975e-46	5.7632e-44	9.9022e-42	1.374e-39	1.5465e-37	1.4182e-35	1.0644e-33	6.5695e-32	3.35e-30	1.4183e-28	5.0095e-27	1.4836e-25	3.7026e-24	7.8265e-23	1.4083e-21	2.1685e-20	2.8717e-19	3.2879e-18	3.2713e-17	2.843e-16	2.1693e-15	1.4607e-14	8.7237e-14	4.6444e-13	2.2152e-12	9.5117e-12	3.6948e-11	1.3046e-10	4.2069e-10	1.2446e-09	3.3933e-09	8.5637e-09	2.0091e-08	4.3999e-08	9.0312e-08	1.7442e-07	3.1813e-07	5.5002e-07	9.0446e-07	1.4193e-06	2.1322e-06	3.0753e-06	4.2709e-06	5.7258e-06	7.4287e-06	9.3481e-06	1.1433e-05	1.3617e-05	1.5818e-05	1.7951e-05	1.9925e-05	2.1656e-05	2.3069e-05	2.41e-05	2.4705e-05	2.4855e-05	2.4545e-05	2.3788e-05	2.2618e-05	2.1087e-05	1.9262e-05	1.7223e-05	1.5057e-05	1.2852e-05	1.0694e-05	8.6595e-06	6.8105e-06	5.1912e-06	3.8261e-06	2.7199e-06	1.8599e-06	1.2198e-06	7.6509e-07	4.5741e-07	2.598e-07	1.3969e-07	7.0847e-08	3.3763e-08	1.5062e-08	6.2745e-09	2.4753e-09	1.0991e-09	1.1512e-09	2.9872e-09	8.912e-09	2.5054e-08	6.52e-08	1.5736e-07	3.5355e-07	7.422e-07	1.4613e-06	2.7082e-06	4.7418e-06	7.871e-06	1.2429e-05	1.8735e-05	2.7044e-05	3.7504e-05	5.012e-05	6.4738e-05	8.1053e-05	9.8642e-05	0.00011701	0.00013564	0.0001541	0.00017206	0.00018937	0.00020614	0.00022271	0.00023969	0.00025793	0.00027845	0.00030243	0.00033122	0.00036647	0.0004103	0.00046555	0.00053611	0.00062719	0.0007455	0.00089939	0.0010989	0.0013559	0.0016843	0.0021007	0.0026251	0.0032824	0.0041041	0.0051319	0.0064211	0.0080462	0.010108	0.012743	0.016134	0.020519	0.026212	0.03361	0.043215	0.055647	0.071658	0.092147	0.11816	0.1509	0.19169	0.24197	0.30323	0.37696	0.46454	0.56717	0.68573	0.82072	0.97212	1.1393	1.3212	1.5158	1.7209	1.9337	2.1509	2.3691	2.585	2.7952	2.9967	3.1868	3.3632	3.5241	3.6682	3.7945	3.9027	3.9924	4.0638	4.1171	4.1525	4.1702	4.1704	4.1532	4.1186	4.0665	3.9967	3.909	3.8033	3.6797	3.5384	3.3801	3.2058	3.0169	2.8155	2.6041	2.3854	2.1627	1.9396	1.7197	1.5063	1.3028	1.1119	0.93606	0.77687	0.63535	0.51182	0.40597	0.31695	0.2435	0.18402	0.13678	0.099973	0.071834	0.050731	0.035205	0.023997	0.016058	0.010541	0.0067808	0.0042685	0.0026252	0.0015744	0.00091881	0.00052072	0.000286	0.00015195	7.7964e-05	3.8565e-05	1.8358e-05	8.3923e-06	3.6741e-06	1.5349e-06	6.0917e-07	2.2847e-07	8.0496e-08	2.6476e-08	8.0769e-09	2.2707e-09	5.8458e-10	1.3698e-10	2.9045e-11	5.5412e-12	9.4599e-13	1.4376e-13	1.9347e-14	2.2944e-15	2.3861e-16	2.1659e-17	1.708e-18	1.1649e-19	6.8421e-21	3.4458e-22	1.4818e-23	5.4196e-25	1.6794e-26	4.3965e-28	9.7969e-30	2.1556e-31	1.2555e-32	2.4967e-33	5.9137e-34	1.3572e-34	2.9792e-35	6.249e-36	1.2519e-36	2.3941e-37	4.3692e-38	7.6053e-39	1.2622e-39	1.9967e-40	3.0091e-41	4.3193e-42	5.9031e-43	7.6791e-44	9.5057e-45	1.1194e-45	1.2539e-46	1.3356e-47	1.3526e-48	1.3023e-49	1.1919e-50	1.0369e-51	8.5732e-53	6.7375e-54	5.0327e-55
3.3144e-62	3.6486e-60	2.4047e-57	1.2816e-54	5.4206e-52	1.826e-49	4.9171e-47	1.0626e-44	1.8501e-42	2.6063e-40	2.9831e-38	2.7863e-36	2.1335e-34	1.3452e-32	7.0179e-31	3.0434e-29	1.1025e-27	3.3522e-26	8.598e-25	1.8695e-23	3.4634e-22	5.4943e-21	7.5015e-20	8.8595e-19	9.097e-18	8.1622e-17	6.4319e-16	4.4736e-15	2.7601e-14	1.5181e-13	7.4801e-13	3.3176e-12	1.3309e-11	4.8516e-11	1.6146e-10	4.9274e-10	1.3851e-09	3.6021e-09	8.7022e-09	1.961e-08	4.1386e-08	8.2109e-08	1.5371e-07	2.7249e-07	4.5896e-07	7.3691e-07	1.1314e-06	1.6657e-06	2.3585e-06	3.2195e-06	4.2474e-06	5.4277e-06	6.7319e-06	8.1189e-06	9.5371e-06	1.0928e-05	1.2229e-05	1.338e-05	1.4326e-05	1.5021e-05	1.5429e-05	1.5531e-05	1.5321e-05	1.4811e-05	1.4024e-05	1.3001e-05	1.1791e-05	1.0451e-05	9.0443e-06	7.6306e-06	6.267e-06	5.0018e-06	3.872e-06	2.9011e-06	2.099e-06	1.4629e-06	9.7957e-07	6.284e-07	3.8506e-07	2.2467e-07	1.2441e-07	6.5156e-08	3.2157e-08	1.4902e-08	6.4626e-09	2.6318e-09	1.0842e-09	7.5706e-10	1.5889e-09	4.8153e-09	1.4189e-08	3.8735e-08	9.7871e-08	2.2965e-07	5.0233e-07	1.0281e-06	1.976e-06	3.5798e-06	6.1343e-06	9.9775e-06	1.5457e-05	2.2882e-05	3.2474e-05	4.4322e-05	5.8354e-05	7.4329e-05	9.1857e-05	0.00011044	0.00012954	0.00014862	0.00016724	0.00018509	0.00020209	0.00021838	0.00023437	0.0002507	0.00026826	0.00028811	0.00031147	0.00033975	0.0003747	0.00041857	0.00047441	0.00054636	0.00063992	0.0007621	0.00092156	0.0011287	0.0013956	0.0017365	0.0021682	0.0027109	0.0033897	0.0042365	0.0052929	0.0066144	0.0082759	0.010379	0.013059	0.016498	0.020935	0.026679	0.034123	0.043757	0.056185	0.072135	0.092472	0.1182	0.15045	0.1905	0.23968	0.2994	0.37104	0.45589	0.55504	0.66931	0.79911	0.94442	1.1046	1.2787	1.4648	1.6607	1.8639	2.0713	2.2798	2.4862	2.6873	2.8804	3.0627	3.2322	3.3871	3.5261	3.6483	3.7531	3.8403	3.9099	3.9619	3.9965	4.0138	4.0141	3.9973	3.9634	3.9124	3.8441	3.7583	3.6552	3.5346	3.3972	3.2435	3.0746	2.8921	2.6978	2.4942	2.284	2.0704	1.8567	1.6462	1.4423	1.2479	1.0657	0.89789	0.74596	0.61086	0.49285	0.39165	0.30644	0.23601	0.17888	0.1334	0.09786	0.070609	0.050097	0.034944	0.023953	0.016128	0.010658	0.0069067	0.0043828	0.0027193	0.0016467	0.00097134	0.00055703	0.00030995	0.00016703	8.7024e-05	4.3754e-05	2.1186e-05	9.8562e-06	4.392e-06	1.8675e-06	7.5437e-07	2.8796e-07	1.0329e-07	3.4603e-08	1.0761e-08	3.0875e-09	8.1232e-10	1.9485e-10	4.2364e-11	8.3035e-12	1.4593e-12	2.2876e-13	3.1826e-14	3.9102e-15	4.2223e-16	3.9886e-17	3.2811e-18	2.3401e-19	1.4408e-20	7.627e-22	3.4572e-23	1.337e-24	4.403e-26	1.2541e-27	3.8082e-29	3.2574e-30	7.5292e-31	1.9728e-31	5.0099e-32	1.2192e-32	2.8402e-33	6.3308e-34	1.3495e-34	2.75e-35	5.3546e-36	9.9578e-37	1.768e-37	2.9957e-38	4.8424e-39	7.4647e-40	1.097e-40	1.5365e-41	2.0505e-42	2.6065e-43	3.1553e-44	3.6368e-45	3.9904e-46	4.1674e-47	4.142e-48	3.9176e-49	3.5259e-50	3.0197e-51	2.4609e-52
7.0172e-64	5.8604e-61	3.9487e-58	2.1094e-55	8.9629e-53	3.0398e-50	8.2587e-48	1.8043e-45	3.1823e-43	4.5496e-41	5.2942e-39	5.0362e-37	3.9335e-35	2.5339e-33	1.3524e-31	6.0082e-30	2.2324e-28	6.9707e-27	1.838e-25	4.1124e-24	7.8463e-23	1.283e-21	1.8067e-20	2.2021e-19	2.3348e-18	2.164e-17	1.762e-16	1.2667e-15	8.0788e-15	4.5935e-14	2.3397e-13	1.0726e-12	4.4466e-12	1.6746e-11	5.7555e-11	1.8132e-10	5.2588e-10	1.4101e-09	3.5104e-09	8.1455e-09	1.7686e-08	3.607e-08	6.9347e-08	1.2612e-07	2.1772e-07	3.5787e-07	5.6181e-07	8.4478e-07	1.22e-06	1.6965e-06	2.2769e-06	2.9558e-06	3.719e-06	4.5434e-06	5.3983e-06	6.2469e-06	7.0496e-06	7.7661e-06	8.359e-06	8.7966e-06	9.0547e-06	9.1192e-06	8.9865e-06	8.6638e-06	8.1691e-06	7.5293e-06	6.7784e-06	5.9552e-06	5.1e-06	4.2518e-06	3.4456e-06	2.7095e-06	2.0636e-06	1.5192e-06	1.0785e-06	7.3661e-07	4.8274e-07	3.0273e-07	1.8113e-07	1.0308e-07	5.5617e-08	2.8353e-08	1.3609e-08	6.1292e-09	2.5881e-09	1.0555e-09	5.5515e-10	8.284e-10	2.4459e-09	7.5378e-09	2.1634e-08	5.7374e-08	1.4098e-07	3.2219e-07	6.873e-07	1.3737e-06	2.5819e-06	4.5796e-06	7.6926e-06	1.228e-05	1.8691e-05	2.7214e-05	3.8028e-05	5.1153e-05	6.6439e-05	8.3562e-05	0.00010206	0.00012137	0.00014093	0.0001602	0.00017874	0.00019631	0.00021286	0.00022859	0.00024395	0.00025964	0.00027657	0.0002958	0.00031857	0.00034634	0.00038093	0.0004247	0.0004809	0.00055387	0.00064936	0.00077466	0.00093873	0.0011522	0.0014275	0.001779	0.0022238	0.0027823	0.0034796	0.0043477	0.0054282	0.0067766	0.0084676	0.010602	0.013316	0.01679	0.021259	0.027028	0.03448	0.044094	0.056453	0.072256	0.092328	0.11762	0.14921	0.18828	0.2361	0.29397	0.36316	0.44486	0.54007	0.64953	0.77361	0.91225	1.0649	1.2305	1.4074	1.5937	1.7867	1.9838	2.182	2.3784	2.5699	2.754	2.9282	3.0904	3.2389	3.3725	3.4901	3.5913	3.6757	3.7431	3.7936	3.8273	3.8442	3.8444	3.828	3.7949	3.745	3.6784	3.5948	3.4944	3.3774	3.2442	3.0956	2.9327	2.757	2.5705	2.3754	2.1744	1.9705	1.7669	1.5666	1.3728	1.1882	1.0153	0.85605	0.71193	0.58373	0.4717	0.37553	0.29447	0.22737	0.17283	0.12932	0.095219	0.068988	0.049173	0.034472	0.02376	0.016094	0.010705	0.0069856	0.0044669	0.0027948	0.001708	0.0010178	0.00059026	0.00033251	0.00018161	9.5989e-05	4.9e-05	2.4102e-05	1.1394e-05	5.159e-06	2.2289e-06	9.1464e-07	3.5469e-07	1.2927e-07	4.4029e-08	1.3931e-08	4.0715e-09	1.0927e-09	2.6779e-10	5.9596e-11	1.198e-11	2.1636e-12	3.4932e-13	5.0165e-14	6.3769e-15	7.1418e-16	7.0149e-17	6.0162e-18	4.4861e-19	2.8966e-20	1.6133e-21	7.7261e-23	3.1809e-24	1.1588e-25	4.9438e-27	6.0022e-28	1.5856e-28	4.5757e-29	1.2804e-29	3.4402e-30	8.8646e-31	2.1895e-31	5.1813e-32	1.1742e-32	2.5471e-33	5.2863e-34	1.0493e-34	1.991e-35	3.6101e-36	6.2528e-37	1.0342e-37	1.6327e-38	2.4598e-39	3.5354e-40	4.8461e-41	6.334e-42	7.892e-43	9.3721e-44	1.0606e-44	1.1437e-45	1.175e-46	1.15e-47	1.0723e-48	9.5248e-50
1.1856e-64	8.8971e-62	5.9864e-59	3.2023e-56	1.3657e-53	4.6599e-51	1.2765e-48	2.8179e-46	5.0321e-44	7.2981e-42	8.6315e-40	8.3599e-38	6.6593e-36	4.3819e-34	2.3926e-32	1.0889e-30	4.1505e-29	1.331e-27	3.6085e-26	8.3097e-25	1.6333e-23	2.7535e-22	4.0009e-21	5.0347e-20	5.5142e-19	5.2818e-18	4.4462e-17	3.3053e-16	2.1803e-15	1.2823e-14	6.7552e-14	3.2028e-13	1.3729e-12	5.345e-12	1.8983e-11	6.1772e-11	1.8496e-10	5.1171e-10	1.3134e-09	3.1399e-09	7.0185e-09	1.4722e-08	2.9084e-08	5.4298e-08	9.6113e-08	1.6181e-07	2.5987e-07	3.9927e-07	5.8841e-07	8.3384e-07	1.1389e-06	1.5025e-06	1.9184e-06	2.3747e-06	2.8545e-06	3.3369e-06	3.798e-06	4.2133e-06	4.5594e-06	4.8162e-06	4.9682e-06	5.0063e-06	4.928e-06	4.7382e-06	4.4483e-06	4.0757e-06	3.6417e-06	3.1705e-06	2.6864e-06	2.2125e-06	1.7686e-06	1.3698e-06	1.0261e-06	7.419e-07	5.166e-07	3.456e-07	2.2157e-07	1.3577e-07	7.9278e-08	4.3982e-08	2.3109e-08	1.1461e-08	5.3473e-09	2.3415e-09	9.7241e-10	4.4117e-10	4.4025e-10	1.1723e-09	3.7493e-09	1.1331e-08	3.162e-08	8.1581e-08	1.953e-07	4.3543e-07	9.0746e-07	1.7743e-06	3.2663e-06	5.6816e-06	9.3705e-06	1.4703e-05	2.2021e-05	3.1583e-05	4.3514e-05	5.7768e-05	7.4116e-05	9.2162e-05	0.00011138	0.00013118	0.00015096	0.0001702	0.0001885	0.00020565	0.00022168	0.00023682	0.0002516	0.00026672	0.00028309	0.0003018	0.00032407	0.00035139	0.00038562	0.00042924	0.00048562	0.0005593	0.00065624	0.00078397	0.00095167	0.0011702	0.0014523	0.0018125	0.0022681	0.0028395	0.0035519	0.0044372	0.0055369	0.0069062	0.0086194	0.010777	0.013513	0.017005	0.021486	0.027252	0.034677	0.044221	0.056444	0.072014	0.091712	0.11643	0.14719	0.18509	0.2313	0.28702	0.35343	0.43162	0.52249	0.62672	0.74463	0.87614	1.0207	1.1774	1.3447	1.5208	1.7032	1.8895	2.077	2.2629	2.4445	2.6192	2.7848	2.9393	3.0811	3.2089	3.3217	3.4189	3.5001	3.5652	3.614	3.6465	3.6628	3.6629	3.6468	3.6145	3.566	3.5011	3.42	3.3227	3.2096	3.0811	2.9381	2.7817	2.6134	2.4352	2.2492	2.058	1.8645	1.6715	1.482	1.2987	1.1245	0.96135	0.8112	0.67531	0.55441	0.44871	0.35791	0.28127	0.21774	0.166	0.12462	0.092102	0.067007	0.047978	0.033801	0.023423	0.015957	0.01068	0.0070164	0.0045194	0.0028502	0.0017573	0.0010573	0.00061975	0.00035323	0.00019539	0.00010468	5.42e-05	2.7053e-05	1.2978e-05	5.9634e-06	2.6141e-06	1.0882e-06	4.2812e-07	1.5832e-07	5.4742e-08	1.7599e-08	5.2317e-09	1.4302e-09	3.5762e-10	8.1356e-11	1.6751e-11	3.1058e-12	5.1597e-13	7.6436e-14	1.005e-14	1.1674e-15	1.193e-16	1.068e-17	8.3445e-19	5.6696e-20	3.3418e-21	1.7142e-22	8.0279e-24	4.8606e-25	7.9544e-26	2.362e-26	7.4713e-27	2.2943e-27	6.7773e-28	1.9236e-28	5.2432e-29	1.3717e-29	3.4428e-30	8.2861e-31	1.9114e-31	4.2243e-32	8.9402e-33	1.8111e-33	3.5106e-34	6.5087e-35	1.1538e-35	1.9548e-36	3.1645e-37	4.8933e-38	7.2254e-39	1.0186e-39	1.3705e-40	1.7597e-41	2.1557e-42	2.5193e-43	2.8085e-44	2.9862e-45	3.0282e-46	2.9288e-47
2.8056e-62	8.087e-62	8.5359e-60	4.4795e-57	1.9157e-54	6.5704e-52	1.8134e-49	4.0422e-47	7.3043e-45	1.0741e-42	1.2906e-40	1.2723e-38	1.0333e-36	6.9439e-35	3.8782e-33	1.8081e-31	7.0691e-30	2.3283e-28	6.4906e-27	1.5386e-25	3.116e-24	5.4172e-23	8.1234e-22	1.0557e-20	1.1948e-19	1.1832e-18	1.0301e-17	7.9218e-17	5.4069e-16	3.2906e-15	1.7939e-14	8.8007e-14	3.9028e-13	1.5715e-12	5.7704e-12	1.9405e-11	6.0015e-11	1.714e-10	4.5384e-10	1.1184e-09	2.5749e-09	5.558e-09	1.1288e-08	2.1643e-08	3.9302e-08	6.7801e-08	1.1145e-07	1.7502e-07	2.6331e-07	3.8039e-07	5.2892e-07	7.0934e-07	9.193e-07	1.1534e-06	1.403e-06	1.6571e-06	1.9026e-06	2.1257e-06	2.313e-06	2.4526e-06	2.5356e-06	2.5564e-06	2.5136e-06	2.4101e-06	2.2527e-06	2.0516e-06	1.8191e-06	1.5691e-06	1.3151e-06	1.0698e-06	8.4327e-07	6.4312e-07	4.7367e-07	3.3625e-07	2.2956e-07	1.5037e-07	9.4272e-08	5.6416e-08	3.2135e-08	1.7372e-08	8.8843e-09	4.2846e-09	1.9429e-09	8.3055e-10	3.5673e-10	2.4881e-10	5.3525e-10	1.7438e-09	5.5516e-09	1.6339e-08	4.4374e-08	1.1157e-07	2.6067e-07	5.6797e-07	1.1584e-06	2.2193e-06	4.0084e-06	6.8487e-06	1.1108e-05	1.7158e-05	2.5324e-05	3.5829e-05	4.8741e-05	6.3948e-05	8.1153e-05	9.9897e-05	0.00011961	0.00013967	0.00015947	0.00017853	0.00019647	0.00021315	0.00022863	0.00024324	0.0002575	0.00027216	0.00028812	0.00030645	0.00032837	0.00035536	0.00038932	0.0004328	0.00048929	0.00056346	0.00066145	0.00079097	0.00096141	0.0011838	0.001471	0.0018379	0.0023017	0.002883	0.0036069	0.0045051	0.0056188	0.0070027	0.0087306	0.010901	0.013647	0.017142	0.021613	0.027348	0.034707	0.044132	0.056156	0.07141	0.09063	0.11465	0.14442	0.18096	0.22534	0.27867	0.34203	0.4164	0.50261	0.60126	0.71263	0.83665	0.97284	1.1203	1.2776	1.443	1.6145	1.7897	1.9661	2.1412	2.3125	2.4775	2.6342	2.7807	2.9154	3.037	3.1446	3.2376	3.3154	3.3778	3.4246	3.4558	3.4714	3.4713	3.4556	3.4242	3.3771	3.3142	3.2358	3.142	3.033	2.9097	2.7727	2.6233	2.463	2.2936	2.1172	1.9364	1.7537	1.5718	1.3935	1.2213	1.0577	0.90477	0.76404	0.63669	0.52339	0.42428	0.33907	0.26707	0.20728	0.1585	0.11939	0.088568	0.064702	0.046536	0.032945	0.022949	0.015722	0.010586	0.0069992	0.0045398	0.002885	0.0017936	0.0010892	0.000645	0.00037174	0.00020812	0.00011294	5.9261e-05	2.9986e-05	1.4585e-05	6.7942e-06	3.0189e-06	1.2738e-06	5.0793e-07	1.9044e-07	6.6798e-08	2.1803e-08	6.5885e-09	1.8336e-09	4.6755e-10	1.0869e-10	2.2919e-11	4.3627e-12	7.4614e-13	1.1413e-13	1.5545e-14	1.8775e-15	2.0031e-16	1.8811e-17	1.5503e-18	1.1201e-19	7.1525e-21	4.337e-22	3.6895e-23	7.6681e-24	2.5212e-24	8.6988e-25	2.9188e-25	9.4404e-26	2.9392e-26	8.804e-27	2.5358e-27	7.0198e-28	1.8668e-28	4.7665e-29	1.1681e-29	2.7459e-30	6.1897e-31	1.3373e-31	2.7681e-32	5.4874e-33	1.0414e-33	1.8914e-34	3.2864e-35	5.4613e-36	8.6773e-37	1.3179e-37	1.9127e-38	2.6524e-39	3.5135e-40	4.4453e-41	5.3712e-42	6.1973e-43	6.8277e-44	7.1823e-45
4.3036e-59	1.0168e-58	2.3956e-58	1.1318e-57	2.4837e-55	8.5113e-53	2.3647e-50	5.3186e-48	9.7186e-46	1.4483e-43	1.7669e-41	1.772e-39	1.4668e-37	1.0064e-35	5.7476e-34	2.7444e-32	1.1005e-30	3.7224e-29	1.067e-27	2.6035e-26	5.4332e-25	9.7421e-24	1.5079e-22	2.0243e-21	2.3679e-20	2.4248e-19	2.1839e-18	1.738e-17	1.2278e-16	7.7354e-16	4.3655e-15	2.2169e-14	1.0175e-13	4.2392e-13	1.6101e-12	5.598e-12	1.7891e-11	5.277e-11	1.442e-10	3.6648e-10	8.6939e-10	1.932e-09	4.0356e-09	7.9498e-09	1.4816e-08	2.6201e-08	4.4093e-08	7.0808e-08	1.0878e-07	1.6026e-07	2.2692e-07	3.0944e-07	4.0717e-07	5.1786e-07	6.3761e-07	7.6102e-07	8.8156e-07	9.9208e-07	1.0855e-06	1.1556e-06	1.1973e-06	1.2078e-06	1.1863e-06	1.1342e-06	1.0554e-06	9.5526e-07	8.4044e-07	7.1812e-07	5.9529e-07	4.7814e-07	3.716e-07	2.7898e-07	2.0197e-07	1.4072e-07	9.4163e-08	6.0373e-08	3.6999e-08	2.1617e-08	1.2007e-08	6.3219e-09	3.1458e-09	1.4749e-09	6.5106e-10	2.7806e-10	1.5165e-10	2.3721e-10	7.5822e-10	2.5382e-09	7.8946e-09	2.2624e-08	5.9897e-08	1.4702e-07	3.358e-07	7.163e-07	1.4321e-06	2.6929e-06	4.7796e-06	8.0345e-06	1.2834e-05	1.9546e-05	2.8472e-05	3.9794e-05	5.3527e-05	6.9498e-05	8.7351e-05	0.00010658	0.00012657	0.00014671	0.00016639	0.00018515	0.00020268	0.00021888	0.00023387	0.00024801	0.00026188	0.00027623	0.00029195	0.00031009	0.00033186	0.00035871	0.00039257	0.00043603	0.00049264	0.0005672	0.00066596	0.00079675	0.0009691	0.0011942	0.001485	0.0018565	0.002326	0.0029139	0.0036455	0.004552	0.0056742	0.0070664	0.0088009	0.010975	0.013718	0.0172	0.02164	0.027315	0.034572	0.043829	0.055591	0.070451	0.089095	0.1123	0.14094	0.17595	0.21832	0.26906	0.32914	0.39945	0.48075	0.57355	0.67812	0.79439	0.92189	1.0598	1.2069	1.3615	1.5218	1.6857	1.8508	2.0149	2.1755	2.3306	2.4781	2.6162	2.7435	2.8587	2.9608	3.0492	3.1233	3.1828	3.2274	3.2572	3.2719	3.2716	3.2562	3.2258	3.1802	3.1196	3.0441	2.954	2.8497	2.7319	2.6014	2.4595	2.3075	2.1474	1.9811	1.811	1.6395	1.4691	1.3023	1.1415	0.98893	0.84635	0.71525	0.59666	0.49113	0.39878	0.31931	0.25209	0.19618	0.15046	0.11372	0.084679	0.062115	0.044875	0.031921	0.022349	0.015393	0.010425	0.0069355	0.0045287	0.002899	0.0018169	0.0011132	0.00066566	0.00038776	0.00021959	0.00012062	6.41e-05	3.2858e-05	1.6192e-05	7.6425e-06	3.4405e-06	1.4708e-06	5.9433e-07	2.2591e-07	8.0388e-08	2.6647e-08	8.1879e-09	2.321e-09	6.0404e-10	1.4364e-10	3.1068e-11	6.0841e-12	1.0741e-12	1.7026e-13	2.4136e-14	3.0493e-15	3.4228e-16	3.4063e-17	3.007e-18	2.3894e-19	1.8799e-20	2.1742e-21	5.4337e-22	1.9535e-22	7.3156e-23	2.6708e-23	9.4184e-24	3.2032e-24	1.05e-24	3.3156e-25	1.0081e-25	2.9498e-26	8.3023e-27	2.2466e-27	5.8421e-28	1.4592e-28	3.4996e-29	8.0544e-30	1.7783e-30	3.7651e-31	7.6412e-32	1.486e-32	2.7681e-33	4.9378e-34	8.4321e-35	1.3781e-35	2.155e-36	3.2236e-37	4.6119e-38	6.3097e-39	8.2537e-40	1.0322e-40	1.234e-41	1.4102e-42
