0	0	0	0	0	0	0	0	0	0	0	0	0	0	0	0	0	0	0	0	0	0	0	0	0	0	0	0	0	0	0	0	0	0	0	0	0	0	0	0	1.8705e-317	7.9075e-310	3.0484e-302	1.0563e-294	3.2464e-287	8.7428e-280	2.0399e-272	4.0808e-265	6.9319e-258	9.9084e-251	1.1818e-243	1.1668e-236	9.466e-230	6.2655e-223	3.3611e-216	1.4521e-209	5.0229e-203	1.3832e-196	3.0166e-190	5.1842e-184	6.9885e-178	7.3576e-172	6.0256e-166	3.8244e-160	1.8749e-154	7.0775e-149	2.0515e-143	4.5551e-138	7.7305e-133	1.0009e-127	9.8713e-123	7.4064e-118	4.2235e-113	1.8292e-108	6.0149e-104	1.5015e-99	2.8457e-95	4.0971e-91	4.4841e-87	3.7344e-83	2.3696e-79	1.1473e-75	4.2461e-72	1.2037e-68	2.6196e-65	4.3875e-62	5.6707e-59	5.6726e-56	4.4057e-53	2.6656e-50	1.2608e-47	4.6794e-45	1.3682e-42	3.1642e-40	5.8129e-38	8.52e-36	1.0009e-33	9.4674e-32	7.2457e-30	4.5089e-28	2.2929e-26	9.5774e-25	3.3033e-23	9.4578e-22	2.2602e-20	4.5333e-19	7.6741e-18	1.1028e-16	1.353e-15	1.4257e-14	1.2983e-13	1.0279e-12	7.1208e-12	4.3447e-11	2.3503e-10	1.1351e-09	4.9291e-09	1.9385e-08	6.9561e-08	2.2944e-07	7.008e-07	1.9961e-06	5.3371e-06	1.3475e-05	3.2285e-05	7.3713e-05	0.00016089	0.00033649	0.00067556	0.0013037	0.0024212	0.0043318	0.0074737	0.012448	0.02004	0.031221	0.047128	0.06902	0.098194	0.13589	0.18315	0.24074	0.30898	0.38771	0.47622	0.57326	0.67712	0.78569	0.8966	1.0074	1.1155	1.2186	1.3146	1.4016	1.4781	1.5428	1.5949	1.6338	1.6591	1.6707	1.6687	1.6534	1.6252	1.5847	1.5325	1.4696	1.3971	1.316	1.2277	1.1339	1.0361	0.93619	0.8359	0.73708	0.64145	0.5506	0.46589	0.3884	0.31887	0.2577	0.20495	0.16037	0.12344	0.093456	0.069593	0.050966	0.036704	0.025987	0.018082	0.012358	0.0082897	0.0054528	0.0035131	0.0022141	0.0013631	0.00081862	0.00047893	0.00027266	0.00015093	8.1197e-05	4.2453e-05	2.1569e-05	1.0644e-05	5.0924e-06	2.3539e-06	1.0454e-06	4.4278e-07	1.7736e-07	6.6594e-08	2.3234e-08	7.4714e-09	2.198e-09	5.876e-10	1.4186e-10	3.0748e-11	5.9515e-12	1.0232e-12	1.5547e-13	2.0771e-14	2.4282e-15	2.4716e-16	2.1799e-17	1.658e-18	1.0822e-19	6.0345e-21	2.861e-22	1.148e-23	3.8813e-25	1.1008e-26	2.6074e-28	5.1368e-30	8.382e-32	1.1283e-33	1.2481e-35	1.1302e-37	8.3483e-40	5.0125e-42	2.4383e-44	9.5786e-47	3.0297e-49	7.6942e-52	1.5647e-54	2.5416e-57	3.2902e-60	3.3874e-63	2.7684e-66	1.793e-69	9.1892e-73	3.7221e-76	1.1903e-79	3.003e-83	5.9736e-87	9.366e-91	1.1574e-94	1.1273e-98	8.6591e-103	5.2483e-107	2.5124e-111	9.5095e-116	2.8501e-120	6.7752e-125	1.2799e-129	1.9256e-134	2.3129e-139	2.2239e-144	1.7169e-149	1.0676e-154	5.3666e-160	2.1886e-165	7.271e-171	1.9761e-176	4.4135e-182	8.1393e-188	1.2457e-193	1.5904e-199	1.7033e-205	1.5391e-211	1.1804e-217	7.7317e-224	4.3533e-230	2.121e-236	9.0045e-243	3.3547e-249	1.1048e-255	3.2407e-262	8.5325e-269	2.0324e-275	4.4156e-282	8.8222e-289	1.6348e-295	2.8339e-302	4.6359e-309	7.2211e-316	1.0869e-322	0	0	0
0	0	0	0	0	0	0	0	0	0	0	0	0	0	0	0	0	0	0	0	0	0	0	0	0	0	0	0	0	0	0	0	0	0	0	0	0	0	0	0	4.1381e-319	2.1368e-311	9.8904e-304	4.0555e-296	1.4572e-288	4.5418e-281	1.2163e-273	2.7735e-266	5.3395e-259	8.608e-252	1.1531e-244	1.274e-237	1.1528e-230	8.4853e-224	5.0478e-217	2.4121e-210	9.2046e-204	2.7896e-197	6.6793e-191	1.2573e-184	1.852e-178	2.1257e-172	1.8935e-166	1.3042e-160	6.9217e-155	2.8221e-149	8.8148e-144	2.104e-138	3.8295e-133	5.3049e-128	5.5844e-123	4.4615e-118	2.7026e-113	1.2404e-108	4.3118e-104	1.1351e-99	2.2634e-95	3.4202e-91	3.9194e-87	3.4096e-83	2.2545e-79	1.1348e-75	4.3564e-72	1.278e-68	2.8716e-65	4.9546e-62	6.5824e-59	6.7537e-56	5.3686e-53	3.3176e-50	1.5995e-47	6.0395e-45	1.793e-42	4.2029e-40	7.8117e-38	1.1564e-35	1.3699e-33	1.3047e-31	1.0039e-29	6.2722e-28	3.1982e-26	1.3379e-24	4.6164e-23	1.3209e-21	3.1518e-20	6.3064e-19	1.0642e-17	1.5234e-16	1.8608e-15	1.9512e-14	1.7673e-13	1.3914e-12	9.5829e-12	5.8125e-11	3.126e-10	1.5012e-09	6.4843e-09	2.5378e-08	9.0674e-08	2.9799e-07	9.0747e-07	2.5787e-06	6.882e-06	1.7349e-05	4.1512e-05	9.4646e-05	0.00020624	0.00043053	0.00086242	0.00166	0.003074	0.0054821	0.0094262	0.015644	0.025092	0.038941	0.058549	0.085398	0.12099	0.16673	0.22376	0.29283	0.37419	0.46746	0.57166	0.68516	0.80583	0.93114	1.0583	1.1844	1.3068	1.4227	1.5298	1.6263	1.7105	1.7813	1.8378	1.8794	1.906	1.9174	1.9138	1.8956	1.8631	1.817	1.7579	1.6868	1.6047	1.513	1.4129	1.3063	1.1948	1.0806	0.96557	0.8519	0.74159	0.63654	0.53836	0.4484	0.36758	0.29644	0.2351	0.18332	0.1405	0.10584	0.078356	0.057008	0.040757	0.028629	0.019752	0.013378	0.0088884	0.005788	0.0036897	0.0022993	0.0013986	0.00082906	0.00047814	0.00026789	0.00014563	7.6742e-05	3.9177e-05	1.9368e-05	9.2674e-06	4.2861e-06	1.911e-06	8.1775e-07	3.3375e-07	1.2891e-07	4.6721e-08	1.575e-08	4.8973e-09	1.3935e-09	3.6026e-10	8.4065e-11	1.7598e-11	3.2858e-12	5.4429e-13	7.9567e-14	1.0212e-14	1.1451e-15	1.1161e-16	9.4107e-18	6.8306e-19	4.2476e-20	2.2522e-21	1.0135e-22	3.8531e-24	1.2318e-25	3.2972e-27	7.3569e-29	1.3625e-30	2.0858e-32	2.6287e-34	2.7168e-36	2.2938e-38	1.5764e-40	8.7871e-43	3.9597e-45	1.4379e-47	4.1949e-50	9.804e-53	1.8307e-55	2.7245e-58	3.2241e-61	3.0275e-64	2.2515e-67	1.324e-70	6.1466e-74	2.2502e-77	6.4889e-81	1.4729e-84	2.63e-88	3.6931e-92	4.078e-96	3.5416e-100	2.4201e-104	1.302e-108	5.5204e-113	1.8467e-117	4.8811e-122	1.0211e-126	1.6939e-131	2.2333e-136	2.346e-141	1.9689e-146	1.3241e-151	7.1588e-157	3.1226e-162	1.1031e-167	3.1686e-173	7.4329e-179	1.4304e-184	2.2693e-190	2.9828e-196	3.2658e-202	2.9951e-208	2.3141e-214	1.5155e-220	8.4661e-227	4.0603e-233	1.6831e-239	6.0729e-246	1.9209e-252	5.3663e-259	1.3341e-265	2.9747e-272	5.9965e-279	1.1018e-285	1.8609e-292	2.9136e-299	4.2659e-306	5.8927e-313	7.7489e-320	0	0	0	0
0	0	0	0	0	0	0	0	0	0	0	0	0	0	0	0	0	0	0	0	0	0	0	0	0	0	0	0	0	0	0	0	0	0	0	0	0	0	0	0	1.3315e-320	7.911e-313	4.1807e-305	1.9454e-297	7.8948e-290	2.7682e-282	8.3122e-275	2.1193e-267	4.5503e-260	8.1624e-253	1.214e-245	1.4862e-238	1.487e-231	1.2079e-224	7.9149e-218	4.1578e-211	1.7408e-204	5.7773e-198	1.5118e-191	3.1038e-185	4.9767e-179	6.2049e-173	5.9915e-167	4.4638e-161	2.5573e-155	1.1231e-149	3.77e-144	9.65e-139	1.8793e-133	2.7792e-128	3.1162e-123	2.6457e-118	1.6992e-113	8.2497e-109	3.0265e-104	8.3891e-100	1.7572e-95	2.7829e-91	3.3346e-87	3.0263e-83	2.0828e-79	1.0888e-75	4.3311e-72	1.3137e-68	3.0452e-65	5.4088e-62	7.3817e-59	7.7642e-56	6.3141e-53	3.9839e-50	1.9574e-47	7.5173e-45	2.2659e-42	5.3828e-40	1.0123e-37	1.5137e-35	1.8085e-33	1.7345e-31	1.3422e-29	8.4219e-28	4.3076e-26	1.8055e-24	6.2352e-23	1.784e-21	4.2526e-20	8.4942e-19	1.4299e-17	2.0407e-16	2.484e-15	2.5947e-14	2.3403e-13	1.8345e-12	1.2579e-11	7.5966e-11	4.0683e-10	1.9461e-09	8.3758e-09	3.268e-08	1.1646e-07	3.8197e-07	1.1614e-06	3.2966e-06	8.7902e-06	2.2142e-05	5.2932e-05	0.00012054	0.00026228	0.00054645	0.0010921	0.0020963	0.00387	0.0068788	0.011786	0.019487	0.031135	0.048126	0.072063	0.10467	0.14766	0.20259	0.27069	0.35267	0.44864	0.55796	0.67929	0.81057	0.94922	1.0922	1.2363	1.3783	1.5151	1.6438	1.762	1.8677	1.9594	2.0359	2.0964	2.1405	2.168	2.179	2.1737	2.1524	2.1156	2.0638	1.9978	1.9185	1.8269	1.7243	1.6121	1.4922	1.3665	1.2372	1.1066	0.9771	0.85102	0.7306	0.61779	0.5142	0.421	0.33889	0.26809	0.20836	0.15904	0.11922	0.087761	0.063437	0.045025	0.031375	0.021461	0.014403	0.0094779	0.0061098	0.0038538	0.002375	0.0014277	0.00083561	0.0004753	0.00026225	0.00014011	7.237e-05	3.6096e-05	1.7368e-05	8.0536e-06	3.5949e-06	1.5415e-06	6.3293e-07	2.476e-07	9.1684e-08	3.1889e-08	1.0331e-08	3.0909e-09	8.4708e-10	2.1103e-10	4.745e-11	9.5673e-12	1.7193e-12	2.7382e-13	3.8437e-14	4.7306e-15	5.0786e-16	4.732e-17	3.8078e-18	2.6333e-19	1.5574e-20	7.8406e-22	3.344e-23	1.2026e-24	3.6306e-26	9.1591e-28	1.9224e-29	3.3427e-31	4.7951e-33	5.6517e-35	5.4515e-37	4.2872e-39	2.7387e-41	1.4162e-43	5.9074e-46	1.9816e-48	5.3291e-51	1.1457e-53	1.9637e-56	2.6767e-59	2.895e-62	2.4792e-65	1.6779e-68	8.9593e-72	3.7688e-75	1.2474e-78	3.2453e-82	6.6312e-86	1.0636e-89	1.3388e-93	1.3223e-97	1.025e-101	6.2383e-106	2.9831e-110	1.1218e-114	3.3218e-119	7.756e-124	1.4304e-128	2.0879e-133	2.4173e-138	2.2257e-143	1.6341e-148	9.5961e-154	4.5223e-159	1.7164e-164	5.2668e-170	1.3119e-175	2.6644e-181	4.4321e-187	6.0685e-193	6.8743e-199	6.4772e-205	5.105e-211	3.3855e-217	1.9006e-223	9.0905e-230	3.7287e-236	1.3206e-242	4.0669e-249	1.097e-255	2.6111e-262	5.5267e-269	1.0484e-275	1.797e-282	2.8061e-289	4.0258e-296	5.3521e-303	6.6519e-310	7.7983e-317	9.8813e-324	0	0	0	0
0	0	0	0	0	0	0	0	0	0	0	0	0	0	0	0	0	0	0	0	0	0	0	0	0	0	0	0	0	0	0	0	0	0	0	0	0	0	0	0	1.9758e-320	8.9429e-313	3.5416e-305	1.2222e-297	3.6708e-290	9.6107e-283	2.2047e-275	4.4629e-268	8.0182e-261	1.2783e-253	1.792e-246	2.1728e-239	2.2342e-232	1.9119e-225	1.34e-218	7.596e-212	3.4473e-205	1.2424e-198	3.5317e-192	7.8717e-186	1.3686e-179	1.8474e-173	1.9279e-167	1.5495e-161	9.5567e-156	4.5091e-150	1.6229e-144	4.444e-139	9.2386e-134	1.4553e-128	1.7341e-123	1.5612e-118	1.0608e-113	5.4364e-109	2.1005e-104	6.1179e-100	1.3436e-95	2.2258e-91	2.7837e-87	2.6309e-83	1.8815e-79	1.0198e-75	4.1972e-72	1.3144e-68	3.1392e-65	5.7331e-62	8.0289e-59	8.6488e-56	7.1895e-53	4.6282e-50	2.3158e-47	9.0415e-45	2.7658e-42	6.6572e-40	1.2664e-37	1.9128e-35	2.3048e-33	2.2264e-31	1.7329e-29	1.0924e-27	5.6064e-26	2.3555e-24	8.1457e-23	2.3318e-21	5.5568e-20	1.1088e-18	1.8636e-17	2.6542e-16	3.2227e-15	3.3569e-14	3.0189e-13	2.3593e-12	1.6129e-11	9.7127e-11	5.1881e-10	2.4761e-09	1.0637e-08	4.1445e-08	1.4756e-07	4.8369e-07	1.4703e-06	4.1731e-06	1.1127e-05	2.802e-05	6.6947e-05	0.00015231	0.00033089	0.00068801	0.0013716	0.0026252	0.0048308	0.0085564	0.014606	0.024056	0.03828	0.058925	0.087861	0.12706	0.17847	0.24377	0.32424	0.42053	0.53252	0.65928	0.79901	0.94921	1.1067	1.2681	1.4296	1.5876	1.7388	1.88	2.0089	2.1234	2.222	2.3036	2.3676	2.4138	2.442	2.4524	2.4452	2.4209	2.3799	2.3226	2.2499	2.1625	2.0615	1.9481	1.8237	1.6904	1.5501	1.4052	1.2583	1.1121	0.96928	0.83245	0.70392	0.58562	0.479	0.38496	0.30384	0.23542	0.17901	0.13356	0.097774	0.070223	0.049482	0.034208	0.023197	0.015425	0.010052	0.0064148	0.0040036	0.0024403	0.0014501	0.00083841	0.00047064	0.00025593	0.00013452	6.8192e-05	3.3274e-05	1.56e-05	7.0157e-06	3.022e-06	1.2444e-06	4.8867e-07	1.8234e-07	6.4332e-08	2.1326e-08	6.5932e-09	1.8859e-09	4.9494e-10	1.1823e-10	2.5513e-11	4.9381e-12	8.5167e-13	1.3009e-13	1.7496e-14	2.0607e-15	2.1143e-16	1.8799e-17	1.4412e-18	9.4803e-20	5.3245e-21	2.5411e-22	1.0256e-23	3.4843e-25	9.9185e-27	2.3552e-28	4.6442e-30	7.5726e-32	1.0167e-33	1.1195e-35	1.0068e-37	7.3681e-40	4.3715e-42	2.0952e-44	8.0851e-47	2.5038e-49	6.2039e-52	1.2263e-54	1.9288e-57	2.4076e-60	2.3796e-63	1.8585e-66	1.1447e-69	5.5514e-73	2.1166e-76	6.3366e-80	1.4881e-83	2.7391e-87	3.9497e-91	4.4603e-95	3.9444e-99	2.7321e-103	1.4829e-107	6.3117e-112	2.1086e-116	5.5358e-121	1.1438e-125	1.8633e-130	2.3979e-135	2.4433e-140	1.9763e-145	1.2724e-150	6.5417e-156	2.6944e-161	8.9233e-167	2.3853e-172	5.1682e-178	9.116e-184	1.3151e-189	1.5595e-195	1.5278e-201	1.2434e-207	8.4537e-214	4.8304e-220	2.3339e-226	9.5972e-233	3.381e-239	1.0275e-245	2.7127e-252	6.2678e-259	1.277e-265	2.3121e-272	3.7496e-279	5.4913e-286	7.3232e-293	8.9692e-300	1.0177e-306	1.0793e-313	1.0795e-320	0	0	0	0	0
0	0	0	0	0	0	0	0	0	0	0	0	0	0	0	0	0	0	0	0	0	0	0	0	0	0	0	0	0	0	0	0	0	0	0	0	0	0	0	0	2.674e-318	1.1949e-310	4.6308e-303	1.544e-295	4.3943e-288	1.0595e-280	2.1482e-273	3.6374e-266	5.1087e-259	5.9139e-252	5.6092e-245	4.3359e-238	2.7195e-231	1.38e-224	5.6626e-218	1.886e-211	5.1507e-205	1.1742e-198	2.2861e-192	3.8685e-186	5.683e-180	7.0905e-174	7.2819e-168	5.9835e-162	3.8533e-156	1.9185e-150	7.3209e-145	2.1288e-139	4.6982e-134	7.8477e-129	9.9e-124	9.4173e-119	6.747e-114	3.638e-109	1.4757e-104	4.5023e-100	1.0335e-95	1.7856e-91	2.3239e-87	2.2809e-83	1.6904e-79	9.4751e-76	4.0246e-72	1.2981e-68	3.1872e-65	5.9723e-62	8.566e-59	9.433e-56	8.0021e-53	5.2479e-50	2.6706e-47	1.0588e-44	3.2837e-42	8.0011e-40	1.5386e-37	2.3459e-35	2.8498e-33	2.7718e-31	2.1696e-29	1.3739e-27	7.0766e-26	2.9809e-24	1.0326e-22	2.9588e-21	7.0527e-20	1.4068e-18	2.3625e-17	3.3605e-16	4.0741e-15	4.2365e-14	3.8031e-13	2.9669e-12	2.025e-11	1.2177e-10	6.4973e-10	3.0987e-09	1.3308e-08	5.1854e-08	1.847e-07	6.0587e-07	1.8433e-06	5.2355e-06	1.3966e-05	3.5175e-05	8.4008e-05	0.00019093	0.00041415	0.00085926	0.0017084	0.0032598	0.005978	0.010549	0.017938	0.029425	0.046627	0.071469	0.1061	0.15276	0.2136	0.29043	0.38454	0.49643	0.62575	0.77115	0.93036	1.1003	1.2773	1.4574	1.6364	1.8102	1.9754	2.1287	2.2676	2.3901	2.4949	2.581	2.648	2.6958	2.7244	2.734	2.725	2.6978	2.6527	2.5904	2.5113	2.4162	2.3061	2.1821	2.0458	1.899	1.7439	1.5832	1.4195	1.256	1.0956	0.94151	0.79629	0.66229	0.54129	0.43443	0.34218	0.26439	0.20032	0.14879	0.10834	0.077326	0.054101	0.037106	0.024946	0.016435	0.010607	0.0066999	0.0041378	0.0024948	0.0014659	0.00083762	0.00046435	0.00024911	0.00012898	6.4269e-05	3.0737e-05	1.4071e-05	6.1504e-06	2.5606e-06	1.0132e-06	3.801e-07	1.3485e-07	4.5084e-08	1.4142e-08	4.1382e-09	1.122e-09	2.7976e-10	6.3636e-11	1.31e-11	2.4222e-12	3.9933e-13	5.831e-14	7.4941e-15	8.4276e-16	8.2465e-17	6.9838e-18	5.0925e-19	3.1811e-20	1.6939e-21	7.6519e-23	2.9182e-24	9.3523e-26	2.507e-27	5.5957e-29	1.0354e-30	1.5813e-32	1.9849e-34	2.0396e-36	1.7086e-38	1.1626e-40	6.4008e-43	2.8415e-45	1.0137e-47	2.8966e-50	6.6096e-53	1.2009e-55	1.7327e-58	1.9803e-61	1.7886e-64	1.274e-67	7.143e-71	3.1471e-74	1.088e-77	2.9477e-81	6.2525e-85	1.0375e-88	1.3461e-92	1.3652e-96	1.0822e-100	6.7066e-105	3.2508e-109	1.2334e-113	3.6662e-118	8.5489e-123	1.5661e-127	2.2581e-132	2.5675e-137	2.3077e-142	1.6437e-147	9.3045e-153	4.199e-158	1.5158e-163	4.393e-169	1.0262e-174	1.9401e-180	2.9819e-186	3.7437e-192	3.8581e-198	3.281e-204	2.3151e-210	1.3631e-216	6.7382e-223	2.8136e-229	9.9892e-236	3.0356e-242	7.9508e-249	1.8078e-255	3.5948e-262	6.299e-269	9.8027e-276	1.3657e-282	1.7176e-289	1.9662e-296	2.0666e-303	2.0117e-310	1.8301e-317	0	0	0	0	0	0
0	0	0	0	0	0	0	0	0	0	0	0	0	0	0	0	0	0	0	0	0	0	0	0	0	0	0	0	0	0	0	0	0	0	0	0	0	0	0	9.8813e-324	4.0425e-316	1.7933e-308	6.8902e-301	2.2743e-293	6.3986e-286	1.5228e-278	3.0432e-271	5.0704e-264	6.9958e-257	7.9404e-250	7.3677e-243	5.5551e-236	3.3841e-229	1.6566e-222	6.4834e-216	2.019e-209	4.9806e-203	9.6943e-197	1.4837e-190	1.7805e-184	1.6727e-178	1.2302e-172	7.1063e-167	3.2505e-161	1.1959e-155	3.6225e-150	9.2674e-145	2.0292e-139	3.7661e-134	5.7615e-129	7.0408e-124	6.7054e-119	4.8968e-114	2.7161e-109	1.1381e-104	3.5923e-100	8.5312e-96	1.5238e-91	2.0478e-87	2.0723e-83	1.581e-79	9.1086e-76	3.97e-72	1.3118e-68	3.2944e-65	6.3044e-62	9.2202e-59	1.0338e-55	8.916e-53	5.9365e-50	3.063e-47	1.2296e-44	3.8562e-42	9.4902e-40	1.8411e-37	2.8287e-35	3.4589e-33	3.3831e-31	2.6604e-29	1.691e-27	8.7347e-26	3.6872e-24	1.2792e-22	3.6682e-21	8.7464e-20	1.7445e-18	2.9281e-17	4.162e-16	5.0414e-15	5.2374e-14	4.6975e-13	3.6618e-12	2.4981e-11	1.5019e-10	8.0149e-10	3.8246e-09	1.6441e-08	6.4146e-08	2.2884e-07	7.5187e-07	2.2909e-06	6.5154e-06	1.7395e-05	4.3822e-05	0.00010462	0.0002375	0.00051425	0.0010644	0.0021101	0.0040131	0.0073327	0.01289	0.021828	0.035657	0.056261	0.085856	0.12689	0.18187	0.25314	0.3426	0.45151	0.58019	0.72794	0.89296	1.0724	1.2627	1.4595	1.6583	1.8544	2.0436	2.2221	2.3866	2.5346	2.6643	2.7744	2.8643	2.9336	2.9825	3.0111	3.0199	3.0091	2.9792	2.9305	2.8635	2.7786	2.6764	2.5578	2.4238	2.2759	2.116	1.9463	1.7695	1.5888	1.4075	1.2291	1.0569	0.89423	0.74369	0.60746	0.48697	0.38287	0.29507	0.22281	0.1648	0.11938	0.084695	0.058846	0.040045	0.026692	0.017424	0.011135	0.0069625	0.0042551	0.0025382	0.0014751	0.00083341	0.0004566	0.00024189	0.00012354	6.0619e-05	2.8481e-05	1.2767e-05	5.4407e-06	2.1967e-06	8.3763e-07	3.0078e-07	1.0145e-07	3.2053e-08	9.4601e-09	2.5988e-09	6.614e-10	1.5504e-10	3.3244e-11	6.4708e-12	1.1343e-12	1.7767e-13	2.4682e-14	3.0196e-15	3.2324e-16	3.009e-17	2.422e-18	1.6765e-19	9.9283e-21	5.0044e-22	2.1365e-23	7.6884e-25	2.3211e-26	5.8511e-28	1.2261e-29	2.1262e-31	3.038e-33	3.5616e-35	3.4118e-37	2.66e-39	1.6813e-41	8.5838e-44	3.5272e-46	1.1626e-48	3.0639e-51	6.4359e-54	1.0745e-56	1.422e-59	1.4878e-62	1.228e-65	7.9789e-69	4.0731e-72	1.6309e-75	5.1149e-79	1.2548e-82	2.4059e-86	3.602e-90	4.2091e-94	3.8377e-98	2.7302e-102	1.5159e-106	6.5714e-111	2.226e-115	5.8977e-120	1.2238e-124	1.9917e-129	2.547e-134	2.5646e-139	2.0381e-144	1.2816e-149	6.3952e-155	2.5405e-160	8.0611e-166	2.0507e-171	4.1993e-177	6.9506e-183	9.3411e-189	1.0242e-194	9.2071e-201	6.8224e-207	4.1901e-213	2.1453e-219	9.2122e-226	3.3386e-232	1.0279e-238	2.7065e-245	6.1379e-252	1.2076e-258	2.0764e-265	3.1445e-272	4.2273e-279	5.0855e-286	5.5205e-293	5.4534e-300	4.9448e-307	4.1522e-314	3.2559e-321	0	0	0	0	0	0
0	0	0	0	0	0	0	0	0	0	0	0	0	0	0	0	0	0	0	0	0	0	0	0	0	0	0	0	0	0	0	0	0	0	0	0	0	0	0	1.3241e-321	6.6347e-314	2.9014e-306	1.0975e-298	3.5619e-291	9.8407e-284	2.2968e-276	4.4953e-269	7.3259e-262	9.8729e-255	1.0931e-247	9.8797e-241	7.246e-234	4.2876e-227	2.0358e-220	7.7158e-214	2.3231e-207	5.531e-201	1.0369e-194	1.5247e-188	1.7521e-182	1.5686e-176	1.091e-170	5.8804e-165	2.452e-159	7.8992e-154	1.9652e-148	3.7783e-143	5.627e-138	6.5247e-133	5.9444e-128	4.3163e-123	2.5456e-118	1.2422e-113	5.0627e-109	1.7122e-104	4.713e-100	1.0318e-95	1.7616e-91	2.314e-87	2.3198e-83	1.7671e-79	1.0211e-75	4.4751e-72	1.4889e-68	3.7671e-65	7.2642e-62	1.0704e-58	1.2089e-55	1.0497e-52	7.0339e-50	3.6504e-47	1.4731e-44	4.6419e-42	1.1471e-39	2.2333e-37	3.4417e-35	4.2188e-33	4.1343e-31	3.2557e-29	2.0714e-27	1.0705e-25	4.5195e-24	1.5676e-22	4.493e-21	1.0705e-19	2.1333e-18	3.5774e-17	5.0799e-16	6.1476e-15	6.3818e-14	5.7209e-13	4.4587e-12	3.0421e-11	1.83e-10	9.7759e-10	4.6717e-09	2.0119e-08	7.8657e-08	2.8122e-07	9.2595e-07	2.8267e-06	8.0509e-06	2.1513e-05	5.4204e-05	0.00012932	0.00029319	0.00063351	0.0013078	0.0025843	0.0048975	0.0089143	0.015606	0.026317	0.042803	0.067237	0.10215	0.15028	0.2144	0.29703	0.40014	0.52488	0.67132	0.83837	1.0237	1.2239	1.4347	1.6511	1.8682	2.0809	2.2847	2.4755	2.6501	2.8061	2.9419	3.0563	3.1491	3.2201	3.2696	3.2981	3.3059	3.2934	3.2611	3.2093	3.1383	3.0483	2.9398	2.8134	2.6701	2.5113	2.3388	2.1548	1.9623	1.7646	1.5653	1.3684	1.1777	0.99687	0.8291	0.67694	0.54213	0.42555	0.3272	0.24631	0.18146	0.13081	0.092263	0.063673	0.043	0.028419	0.018381	0.011633	0.0072005	0.0043549	0.0025703	0.0014778	0.00082591	0.00044748	0.00023433	0.0001182	5.7216e-05	2.647e-05	1.1653e-05	4.86e-06	1.9114e-06	7.0587e-07	2.4379e-07	7.848e-08	2.3479e-08	6.5129e-09	1.6714e-09	3.9585e-10	8.6244e-11	1.7208e-11	3.126e-12	5.134e-13	7.5637e-14	9.9155e-15	1.1475e-15	1.1636e-16	1.0266e-17	7.8316e-19	5.1343e-20	2.8767e-21	1.3702e-22	5.5201e-24	1.8716e-25	5.3153e-27	1.2585e-28	2.4728e-30	4.0142e-32	5.3603e-34	5.8631e-36	5.2313e-38	3.7923e-40	2.225e-42	1.0527e-44	4.0014e-47	1.218e-49	2.959e-52	5.7201e-55	8.7733e-58	1.0648e-60	1.02e-63	7.6941e-67	4.5609e-70	2.1206e-73	7.7202e-77	2.1977e-80	4.8855e-84	8.4732e-88	1.1456e-91	1.207e-95	9.9057e-100	6.3328e-104	3.1545e-108	1.225e-112	3.7111e-117	8.78e-122	1.6243e-126	2.3535e-131	2.6754e-136	2.3913e-141	1.6844e-146	9.3759e-152	4.1358e-157	1.4504e-162	4.0576e-168	9.0897e-174	1.637e-179	2.3803e-185	2.8071e-191	2.6978e-197	2.1237e-203	1.3766e-209	7.3887e-216	3.3032e-222	1.2375e-228	3.9095e-235	1.0485e-241	2.4033e-248	4.7415e-255	8.1106e-262	1.212e-268	1.5943e-275	1.8609e-282	1.9432e-289	1.8304e-296	1.5687e-303	1.2339e-310	8.9873e-318	0	0	0	0	0	0	0
0	0	0	0	0	0	0	0	0	0	0	0	0	0	0	0	0	0	0	0	0	0	0	0	0	0	0	0	0	0	0	0	0	0	0	0	0	0	0	2.403e-319	1.1801e-311	5.0501e-304	1.8674e-296	5.9183e-289	1.5948e-281	3.6265e-274	6.9071e-267	1.0941e-259	1.4314e-252	1.5366e-245	1.345e-238	9.5418e-232	5.4546e-225	2.4989e-218	9.1273e-212	2.6449e-205	6.0529e-199	1.0892e-192	1.5352e-186	1.6885e-180	1.4443e-174	9.5798e-169	4.9138e-163	1.9447e-157	5.9273e-152	1.3892e-146	2.5011e-141	3.4575e-136	3.6697e-131	2.9927e-126	1.8779e-121	9.0897e-117	3.4073e-112	9.9502e-108	2.2829e-103	4.162e-99	6.107e-95	7.2947e-91	7.1315e-87	5.6871e-83	3.6597e-79	1.8741e-75	7.5385e-72	2.3591e-68	5.7079e-65	1.0644e-61	1.5284e-58	1.6908e-55	1.4437e-52	9.5368e-50	4.8893e-47	1.9521e-44	6.0932e-42	1.493e-39	2.8844e-37	4.4138e-35	5.3753e-33	5.2358e-31	4.1001e-29	2.5948e-27	1.3345e-25	5.6078e-24	1.9367e-22	5.5289e-21	1.3125e-19	2.6068e-18	4.3585e-17	6.1734e-16	7.4554e-15	7.7273e-14	6.9197e-13	5.3904e-12	3.6782e-11	2.2142e-10	1.1843e-09	5.6691e-09	2.4465e-08	9.5871e-08	3.4357e-07	1.1337e-06	3.4673e-06	9.8876e-06	2.6436e-05	6.6593e-05	0.00015872	0.0003592	0.00077423	0.0015934	0.003138	0.005924	0.010739	0.018721	0.031431	0.050892	0.07958	0.12034	0.17623	0.25026	0.34509	0.46271	0.60411	0.76906	0.95599	1.162	1.383	1.6141	1.8498	2.0845	2.3128	2.5299	2.7318	2.9152	3.078	3.2186	3.3364	3.4311	3.5031	3.5528	3.5808	3.5877	3.5738	3.5396	3.4852	3.4109	3.3166	3.2028	3.0696	2.918	2.7491	2.5647	2.3671	2.1592	1.9447	1.7275	1.512	1.3025	1.1031	0.91762	0.74899	0.59934	0.46979	0.36045	0.27056	0.19859	0.1425	0.099952	0.068532	0.045939	0.03011	0.0193	0.012097	0.0074122	0.0044366	0.0025912	0.0014742	0.00081522	0.00043702	0.00022639	0.00011291	5.4e-05	2.465e-05	1.0687e-05	4.3773e-06	1.6847e-06	6.0594e-07	2.0264e-07	6.271e-08	1.7888e-08	4.6882e-09	1.1264e-09	2.4767e-10	4.9778e-11	9.1299e-12	1.5242e-12	2.3066e-13	3.1454e-14	3.8368e-15	4.1524e-16	3.9534e-17	3.2844e-18	2.3629e-19	1.4619e-20	7.7287e-22	3.4711e-23	1.3172e-24	4.2014e-26	1.1209e-27	2.4894e-29	4.581e-31	6.9538e-33	8.6691e-35	8.8384e-37	7.3386e-39	4.9427e-41	2.69e-43	1.1786e-45	4.142e-48	1.1638e-50	2.6055e-53	4.6341e-56	6.5288e-59	7.2664e-62	6.373e-65	4.3944e-68	2.3773e-71	1.0071e-74	3.3355e-78	8.6237e-82	1.7385e-85	2.7299e-89	3.3368e-93	3.1731e-97	2.347e-101	1.3503e-105	6.0439e-110	2.1058e-114	5.7159e-119	1.2099e-123	1.9999e-128	2.5853e-133	2.6187e-138	2.0828e-143	1.3039e-148	6.4419e-154	2.5191e-159	7.8226e-165	1.9356e-170	3.8308e-176	6.0887e-182	7.8051e-188	8.1068e-194	6.8553e-200	4.7439e-206	2.7009e-212	1.2723e-218	4.9878e-225	1.6374e-231	4.5302e-238	1.0633e-244	2.1317e-251	3.6766e-258	5.4954e-265	7.1723e-272	8.2378e-279	8.3931e-286	7.6482e-293	6.2858e-300	4.6997e-307	3.2247e-314	2.0504e-321	0	0	0	0	0	0	0
0	0	0	0	0	0	0	0	0	0	0	0	0	0	0	0	0	0	0	0	0	0	0	0	0	0	0	0	0	0	0	0	0	0	0	0	0	0	0	4.7682e-317	2.2744e-309	9.4495e-302	3.3903e-294	1.0417e-286	2.7191e-279	5.9834e-272	1.1018e-264	1.6855e-257	2.1276e-250	2.2014e-243	1.8552e-236	1.2658e-229	6.9523e-223	3.0568e-216	1.0704e-209	2.9708e-203	6.5041e-197	1.1185e-190	1.5049e-184	1.5783e-178	1.2858e-172	8.1119e-167	3.9524e-161	1.4836e-155	4.2817e-150	9.4833e-145	1.6098e-139	2.0925e-134	2.0814e-129	1.5842e-124	9.2299e-120	4.1195e-115	1.4104e-110	3.7108e-106	7.5215e-102	1.1782e-97	1.4322e-93	1.3579e-89	1.011e-85	5.9581e-82	2.8042e-78	1.0626e-74	3.2598e-71	8.1018e-68	1.6252e-64	2.6132e-61	3.342e-58	3.3768e-55	2.6833e-52	1.6726e-49	8.1733e-47	3.1339e-44	9.4474e-42	2.2456e-39	4.2232e-37	6.3091e-35	7.5196e-33	7.1835e-31	5.5272e-29	3.4429e-27	1.7453e-25	7.2402e-24	2.4715e-22	6.9829e-21	1.6425e-19	3.2361e-18	5.3732e-17	7.5662e-16	9.0936e-15	9.3897e-14	8.3852e-13	6.5202e-12	4.4452e-11	2.6757e-10	1.4321e-09	6.8641e-09	2.9672e-08	1.165e-07	4.1828e-07	1.3826e-06	4.2336e-06	1.2081e-05	3.2297e-05	8.129e-05	0.00019343	0.00043676	0.00093867	0.0019253	0.003777	0.0071013	0.012818	0.022246	0.03718	0.059926	0.093273	0.14039	0.20463	0.28923	0.39696	0.52976	0.68842	0.87234	1.0794	1.3061	1.5477	1.7986	2.0526	2.3038	2.5465	2.7756	2.9871	3.1779	3.346	3.4903	3.6103	3.7061	3.7785	3.8279	3.8553	3.8613	3.8462	3.8106	3.7544	3.6775	3.58	3.4618	3.323	3.1641	2.9862	2.7908	2.5803	2.3578	2.127	1.8922	1.6581	1.4297	1.2117	1.0082	0.82276	0.65792	0.51505	0.39442	0.29527	0.21598	0.15431	0.10767	0.073368	0.04883	0.031748	0.02017	0.012522	0.0075962	0.0045	0.0026008	0.0014643	0.00080139	0.00042521	0.00021801	0.00010759	5.0892e-05	2.2955e-05	9.8208e-06	3.9617e-06	1.4977e-06	5.2733e-07	1.7187e-07	5.155e-08	1.4154e-08	3.5413e-09	8.0441e-10	1.6546e-10	3.0774e-11	5.1721e-12	7.8544e-13	1.0773e-13	1.3324e-14	1.4803e-15	1.4686e-16	1.2909e-17	9.9657e-19	6.6958e-20	3.882e-21	1.9269e-22	8.1315e-24	2.899e-25	8.6819e-27	2.1724e-28	4.5195e-30	7.78e-32	1.1031e-33	1.2826e-35	1.2178e-37	9.402e-40	5.8791e-42	2.966e-44	1.2027e-46	3.9063e-49	1.0127e-51	2.0888e-54	3.4176e-57	4.4224e-60	4.514e-63	3.6253e-66	2.2856e-69	1.1289e-72	4.3595e-76	1.3142e-79	3.0885e-83	5.6509e-87	8.0422e-91	8.8963e-95	7.6456e-99	5.1037e-103	2.6463e-107	1.0661e-111	3.3388e-116	8.1352e-121	1.5438e-125	2.2849e-130	2.6415e-135	2.3899e-140	1.6959e-145	9.461e-151	4.1608e-156	1.4468e-161	3.9907e-167	8.7623e-173	1.5373e-178	2.164e-184	2.4547e-190	2.254e-196	1.6837e-202	1.0285e-208	5.1645e-215	2.1443e-221	7.4046e-228	2.1399e-234	5.2086e-241	1.075e-247	1.8943e-254	2.8706e-261	3.7683e-268	4.3182e-275	4.3535e-282	3.8927e-289	3.1125e-296	2.2444e-303	1.4723e-310	8.8631e-318	0	0	0	0	0	0	0	0
0	0	0	0	0	0	0	0	0	0	0	0	0	0	0	0	0	0	0	0	0	0	0	0	0	0	0	0	0	0	0	0	0	0	0	0	0	0	1.9763e-322	1.0412e-314	4.7704e-307	1.9054e-299	6.5744e-292	1.9425e-284	4.8745e-277	1.0306e-269	1.8223e-262	2.675e-255	3.2373e-248	3.2087e-241	2.5883e-234	1.6888e-227	8.8622e-221	3.7198e-214	1.2424e-207	3.2855e-201	6.8485e-195	1.1204e-188	1.4326e-182	1.4267e-176	1.1026e-170	6.5937e-165	3.0422e-159	1.0803e-153	2.946e-148	6.1583e-143	9.8533e-138	1.2053e-132	1.1262e-127	8.0353e-123	4.3774e-118	1.8215e-113	5.7935e-109	1.4103e-104	2.6315e-100	3.7716e-96	4.1617e-92	3.5455e-88	2.3393e-84	1.1998e-80	4.8032e-77	1.5085e-73	3.7379e-70	7.3561e-67	1.1576e-63	1.4657e-60	1.4999e-57	1.2427e-54	8.3294e-52	4.5032e-49	1.9567e-46	6.8107e-44	1.8949e-41	4.2111e-39	7.4789e-37	1.0634e-34	1.2137e-32	1.1159e-30	8.2983e-29	5.0136e-27	2.473e-25	1.001e-23	3.343e-22	9.2626e-21	2.1416e-19	4.1562e-18	6.8116e-17	9.486e-16	1.1296e-14	1.1577e-13	1.0278e-12	7.9572e-12	5.4086e-11	3.2497e-10	1.7379e-09	8.3292e-09	3.6023e-08	1.4154e-07	5.086e-07	1.6821e-06	5.1519e-06	1.4696e-05	3.9249e-05	9.8619e-05	0.00023412	0.00052706	0.0011288	0.0023064	0.004506	0.0084349	0.015156	0.026184	0.043559	0.069877	0.10825	0.16217	0.23526	0.33096	0.4521	0.60054	0.77679	0.97982	1.207	1.454	1.7155	1.9852	2.2565	2.5228	2.7783	3.0178	3.2374	3.4341	3.6061	3.7528	3.8739	3.9701	4.0421	4.091	4.1176	4.1227	4.1069	4.0703	4.0129	3.9345	3.8348	3.7133	3.5699	3.405	3.2192	3.0141	2.7917	2.5554	2.3089	2.057	1.8048	1.5578	1.3211	1.0996	0.89726	0.71707	0.56072	0.42864	0.32011	0.23341	0.16609	0.11532	0.078117	0.051636	0.033313	0.020983	0.012906	0.0077514	0.0045449	0.0025994	0.0014483	0.00078446	0.00041199	0.0002091	0.00010215	4.7807e-05	2.1324e-05	9.0124e-06	3.5865e-06	1.3351e-06	4.6178e-07	1.474e-07	4.3136e-08	1.1501e-08	2.7775e-09	6.0441e-10	1.18e-10	2.0601e-11	3.2095e-12	4.4588e-13	5.527e-14	6.1209e-15	6.0628e-16	5.3691e-17	4.2386e-18	2.965e-19	1.8225e-20	9.7483e-22	4.4929e-23	1.768e-24	5.8916e-26	1.6508e-27	3.865e-29	7.5185e-31	1.209e-32	1.5994e-34	1.7328e-36	1.5307e-38	1.0981e-40	6.3703e-43	2.9774e-45	1.1169e-47	3.351e-50	8.0137e-53	1.5226e-55	2.2913e-58	2.7233e-61	2.5496e-64	1.8754e-67	1.0815e-70	4.8787e-74	1.7185e-77	4.7192e-81	1.0088e-84	1.6769e-88	2.1653e-92	2.1703e-96	1.688e-100	1.0184e-104	4.7667e-109	1.7314e-113	4.8829e-118	1.0702e-122	1.8247e-127	2.4236e-132	2.5118e-137	2.0351e-142	1.2919e-147	6.4409e-153	2.529e-158	7.8439e-164	1.9281e-169	3.7693e-175	5.8833e-181	7.3616e-187	7.4169e-193	6.045e-199	4.0051e-205	2.1684e-211	9.6459e-218	3.5456e-224	1.0834e-230	2.7691e-237	5.9587e-244	1.0868e-250	1.6917e-257	2.2639e-264	2.6239e-271	2.6541e-278	2.3616e-285	1.8634e-292	1.3148e-299	8.366e-307	4.8427e-314	2.5741e-321	0	0	0	0	0	0	0	0
0	0	0	0	0	0	0	0	0	0	0	0	0	0	0	0	0	0	0	0	0	0	0	0	0	0	0	0	0	0	0	0	0	0	0	0	0	0	5.249e-320	2.5608e-312	1.1066e-304	4.1861e-297	1.3717e-289	3.8559e-282	9.2143e-275	1.8562e-267	3.127e-260	4.3728e-253	5.0396e-246	4.7545e-239	3.6484e-232	2.2632e-225	1.1284e-218	4.4966e-212	1.4249e-205	3.5728e-199	7.056e-193	1.0929e-186	1.3222e-180	1.2449e-174	9.0914e-169	5.1332e-163	2.2347e-157	7.4821e-152	1.9224e-146	3.7835e-141	5.6944e-136	6.5462e-131	5.7426e-126	3.8419e-121	1.9597e-116	7.6227e-112	2.262e-107	5.1255e-103	8.8787e-99	1.1778e-94	1.1987e-90	9.3828e-87	5.663e-83	2.6432e-79	9.5699e-76	2.6968e-72	5.9363e-69	1.0247e-65	1.3931e-62	1.4989e-59	1.2834e-56	8.7958e-54	4.8531e-51	2.167e-48	7.8613e-46	2.3223e-43	5.5903e-41	1.0961e-38	1.7491e-36	2.2703e-34	2.3973e-32	2.0615e-30	1.4466e-28	8.3073e-27	3.9184e-25	1.5245e-23	4.9155e-22	1.3202e-20	2.9695e-19	5.6254e-18	9.0277e-17	1.2347e-15	1.448e-14	1.4652e-13	1.2873e-12	9.8848e-12	6.6763e-11	3.9925e-10	2.1279e-09	1.0175e-08	4.3934e-08	1.7243e-07	6.1897e-07	2.045e-06	6.2548e-06	1.7811e-05	4.7462e-05	0.00011893	0.00028141	0.0006312	0.0013464	0.0027391	0.0053273	0.0099263	0.017752	0.030523	0.050535	0.080683	0.1244	0.18548	0.2678	0.37497	0.50983	0.6741	0.86798	1.0899	1.3367	1.6033	1.8838	2.1711	2.4581	2.7381	3.0047	3.2529	3.4789	3.6799	3.8545	4.0023	4.1236	4.2193	4.2905	4.3384	4.3642	4.3687	4.3524	4.3154	4.2576	4.1785	4.0775	3.9539	3.8072	3.6375	3.4451	3.2313	2.9983	2.7491	2.488	2.2197	1.95	1.6847	1.4298	1.1904	0.97137	0.77591	0.60611	0.46261	0.34471	0.25059	0.17765	0.12278	0.082713	0.054321	0.034786	0.021729	0.013243	0.0078768	0.0045714	0.0025873	0.0014263	0.00076447	0.00039733	0.00019957	9.6483e-05	4.4676e-05	1.9705e-05	8.2288e-06	3.2321e-06	1.1859e-06	4.0362e-07	1.2652e-07	3.6274e-08	9.4467e-09	2.2201e-09	4.6795e-10	8.7954e-11	1.4667e-11	2.1608e-12	2.8035e-13	3.1978e-14	3.2063e-15	2.8304e-16	2.2063e-17	1.5232e-18	9.3295e-20	5.0611e-21	2.4181e-22	1.0084e-23	3.6304e-25	1.1162e-26	2.9014e-28	6.3211e-30	1.1458e-31	1.7172e-33	2.1161e-35	2.1336e-37	1.7521e-39	1.1669e-41	6.2768e-44	2.7165e-46	9.4232e-49	2.6108e-51	5.758e-54	1.0076e-56	1.3947e-59	1.5227e-62	1.3078e-65	8.8137e-69	4.6506e-72	1.9173e-75	6.1645e-79	1.5432e-82	3.0038e-86	4.5407e-90	5.3257e-94	4.8433e-98	3.4137e-102	1.8644e-106	7.891e-111	2.589e-115	6.5885e-120	1.3016e-124	1.9984e-129	2.3878e-134	2.2241e-139	1.6181e-144	9.2148e-150	4.118e-155	1.4481e-160	4.0191e-166	8.8337e-172	1.5431e-177	2.1505e-183	2.401e-189	2.1571e-195	1.5667e-201	9.2456e-208	4.4561e-214	1.7638e-220	5.766e-227	1.5663e-233	3.5579e-240	6.8016e-247	1.1018e-253	1.5229e-260	1.8093e-267	1.8613e-274	1.6711e-281	1.3196e-288	9.241e-296	5.7868e-303	3.2683e-310	1.6794e-317	0	0	0	0	0	0	0	0	0
0	0	0	0	0	0	0	0	0	0	0	0	0	0	0	0	0	0	0	0	0	0	0	0	0	0	0	0	0	0	0	0	0	0	0	0	0	0	1.7063e-317	7.5058e-310	2.9615e-302	1.0335e-294	3.1487e-287	8.2765e-280	1.8569e-272	3.5214e-265	5.5948e-258	7.3865e-251	8.0418e-244	7.1689e-237	5.1979e-230	3.0461e-223	1.4343e-216	5.3962e-210	1.6136e-203	3.8164e-197	7.106e-191	1.0371e-184	1.1818e-178	1.0476e-172	7.1982e-167	3.8224e-161	1.5643e-155	4.921e-150	1.1874e-144	2.1936e-139	3.0975e-134	3.3389e-129	2.7448e-124	1.7197e-119	8.2084e-115	2.985e-110	8.2722e-106	1.7482e-101	2.8202e-97	3.4776e-93	3.2835e-89	2.3788e-85	1.3254e-81	5.6952e-78	1.8928e-74	4.8809e-71	9.7983e-68	1.5365e-64	1.889e-61	1.8272e-58	1.3962e-55	8.463e-53	4.0881e-50	1.5817e-47	4.9283e-45	1.2434e-42	2.5537e-40	4.2898e-38	5.9164e-36	6.7175e-34	6.2908e-32	4.8656e-30	3.1121e-28	1.6487e-26	7.2489e-25	2.6526e-23	8.1062e-22	2.0771e-20	4.4833e-19	8.192e-18	1.2739e-16	1.6955e-15	1.9426e-14	1.9271e-13	1.6655e-12	1.2615e-11	8.4263e-11	4.9943e-10	2.643e-09	1.2566e-08	5.4009e-08	2.1114e-07	7.5531e-07	2.4872e-06	7.5821e-06	2.1515e-05	5.7122e-05	0.00014256	0.00033591	0.00075008	0.0015926	0.0032244	0.0062408	0.011572	0.020593	0.035236	0.058054	0.092241	0.14154	0.21003	0.30183	0.42064	0.5693	0.74932	0.96053	1.2009	1.4664	1.7516	2.0497	2.3531	2.6542	2.946	3.222	3.4772	3.7078	3.9117	4.0875	4.2354	4.356	4.4505	4.5205	4.5673	4.5923	4.5962	4.5798	4.543	4.4855	4.4065	4.3052	4.1805	4.0317	3.8584	3.6607	3.4395	3.197	2.9363	2.6615	2.3779	2.0915	1.8087	1.536	1.2794	1.0439	0.83349	0.65049	0.49576	0.36865	0.26727	0.18882	0.12994	0.087084	0.056845	0.036147	0.0224	0.013532	0.0079719	0.0045798	0.0025647	0.0013987	0.00074151	0.0003812	0.00018939	9.0547e-05	4.1452e-05	1.8067e-05	7.4499e-06	2.8868e-06	1.0438e-06	3.4963e-07	1.0771e-07	3.0302e-08	7.7295e-09	1.7755e-09	3.6481e-10	6.6621e-11	1.0747e-11	1.5229e-12	1.8857e-13	2.0315e-14	1.8981e-15	1.5353e-16	1.0751e-17	6.5335e-19	3.4608e-20	1.6066e-21	6.5658e-23	2.3639e-24	7.4643e-26	2.0477e-27	4.8212e-29	9.6206e-31	1.6089e-32	2.2337e-34	2.5548e-36	2.392e-38	1.8235e-40	1.1264e-42	5.6143e-45	2.2487e-47	7.2107e-50	1.8445e-52	3.751e-55	6.0451e-58	7.6968e-61	7.7205e-64	6.0848e-67	3.7588e-70	1.8158e-73	6.8458e-77	2.0105e-80	4.5924e-84	8.1473e-88	1.1213e-91	1.1962e-95	9.8837e-100	6.3231e-104	3.1314e-108	1.2006e-112	3.5651e-117	8.2034e-122	1.4641e-126	2.0289e-131	2.1864e-136	1.8352e-141	1.2022e-146	6.16e-152	2.475e-157	7.8198e-163	1.9487e-168	3.8433e-174	6.0203e-180	7.5196e-186	7.5205e-192	6.0493e-198	3.932e-204	2.0756e-210	8.9451e-217	3.1647e-223	9.2447e-230	2.2434e-236	4.551e-243	7.7684e-250	1.1234e-256	1.3862e-263	1.4699e-270	1.3497e-277	1.0815e-284	7.6232e-292	4.7653e-299	2.6641e-306	1.3435e-313	6.1659e-321	0	0	0	0	0	0	0	0	0
0	0	0	0	0	0	0	0	0	0	0	0	0	0	0	0	0	0	0	0	0	0	0	0	0	0	0	0	0	0	0	0	0	0	0	0	0	1.828e-322	7.5651e-315	2.8731e-307	9.9052e-300	3.0617e-292	8.3713e-285	1.9976e-277	4.1068e-270	7.1885e-263	1.0599e-255	1.3035e-248	1.3256e-241	1.1058e-234	7.5117e-228	4.1273e-221	1.8229e-214	6.4339e-208	1.805e-201	4.0046e-195	6.9935e-189	9.5716e-183	1.0225e-176	8.4947e-171	5.4692e-165	2.7205e-159	1.0426e-153	3.0706e-148	6.935e-143	1.1988e-137	1.5835e-132	1.5963e-127	1.2269e-122	7.184e-118	3.2037e-113	1.088e-108	2.8142e-104	5.5474e-100	8.3409e-96	9.5771e-92	8.4102e-88	5.659e-84	2.924e-80	1.1631e-76	3.5714e-73	8.4918e-70	1.5686e-66	2.259e-63	2.5451e-60	2.2518e-57	1.5702e-54	8.663e-52	3.7961e-49	1.3266e-46	3.7134e-44	8.3644e-42	1.5238e-39	2.2571e-37	2.7332e-35	2.7205e-33	2.2372e-31	1.5269e-29	8.6837e-28	4.1289e-26	1.6463e-24	5.5203e-23	1.5613e-21	3.737e-20	7.5974e-19	1.3174e-17	1.9572e-16	2.5038e-15	2.7721e-14	2.6707e-13	2.2513e-12	1.6698e-11	1.096e-10	6.4015e-10	3.3466e-09	1.575e-08	6.711e-08	2.6041e-07	9.2541e-07	3.029e-06	9.1816e-06	2.5912e-05	6.8427e-05	0.00016987	0.00039814	0.00088433	0.0018677	0.0037618	0.0072431	0.013361	0.023658	0.040278	0.066035	0.10441	0.15944	0.23548	0.33683	0.46726	0.62954	0.82493	1.0528	1.3107	1.5939	1.8963	2.2104	2.5281	2.8415	3.1432	3.4268	3.6872	3.9211	4.1264	4.3023	4.4493	4.5685	4.6613	4.7297	4.7753	4.7994	4.8031	4.7869	4.7507	4.694	4.6159	4.5152	4.3905	4.2406	4.0648	3.863	3.6358	3.3851	3.114	2.8267	2.5289	2.2269	1.9276	1.638	1.3648	1.1136	0.8888	0.69308	0.52751	0.39151	0.28313	0.19939	0.13667	0.091157	0.059166	0.037376	0.022987	0.013769	0.0080361	0.0045703	0.0025322	0.0013656	0.00071576	0.00036369	0.00017855	8.4331e-05	3.8123e-05	1.6399e-05	6.6687e-06	2.5461e-06	9.0621e-07	2.9848e-07	9.0321e-08	2.4929e-08	6.2314e-09	1.4008e-09	2.8128e-10	5.0113e-11	7.8701e-12	1.0826e-12	1.2966e-13	1.3441e-14	1.1998e-15	9.1794e-17	5.9975e-18	3.3391e-19	1.5839e-20	6.4176e-22	2.233e-23	6.7254e-25	1.7674e-26	4.0718e-28	8.2084e-30	1.4349e-31	2.1458e-33	2.7049e-35	2.8368e-37	2.4493e-39	1.7264e-41	9.8704e-44	4.5527e-46	1.6864e-48	4.9967e-51	1.1798e-53	2.2121e-56	3.2834e-59	3.8462e-62	3.5455e-65	2.5652e-68	1.4532e-71	6.4309e-75	2.2188e-78	5.9576e-82	1.2429e-85	2.0119e-89	2.5243e-93	2.4525e-97	1.844e-101	1.0725e-105	4.8248e-110	1.679e-114	4.5214e-119	9.4281e-124	1.5237e-128	1.9107e-133	1.8618e-138	1.4121e-143	8.3536e-149	3.8629e-154	1.3999e-159	3.9872e-165	8.9525e-171	1.59e-176	2.242e-182	2.5196e-188	2.2663e-194	1.6389e-200	9.5746e-207	4.5411e-213	1.7579e-219	5.5853e-226	1.465e-232	3.1915e-239	5.8114e-246	8.9037e-253	1.1556e-259	1.2797e-266	1.218e-273	1.0038e-280	7.2206e-288	4.5693e-295	2.5648e-302	1.2878e-309	5.8346e-317	0	0	0	0	0	0	0	0	0	0
0	0	0	0	0	0	0	0	0	0	0	0	0	0	0	0	0	0	0	0	0	0	0	0	0	0	0	0	0	0	0	0	0	0	0	0	0	1.3162e-319	4.694e-312	1.5239e-304	4.4804e-297	1.1849e-289	2.7951e-282	5.8198e-275	1.0571e-267	1.6544e-260	2.2036e-253	2.4693e-246	2.3033e-239	1.7712e-232	1.1133e-225	5.6747e-219	2.3296e-212	7.6526e-206	1.9999e-199	4.1359e-193	6.735e-187	8.5974e-181	8.5674e-175	6.6396e-169	3.9879e-163	1.8505e-157	6.6152e-152	1.8173e-146	3.8283e-141	6.172e-136	7.6035e-131	7.1482e-126	5.1232e-121	2.7973e-116	1.1631e-111	3.6824e-107	8.8787e-103	1.6311e-98	2.2849e-94	2.4433e-90	1.9971e-86	1.25e-82	6.0031e-79	2.2171e-75	6.3138e-72	1.3905e-68	2.3757e-65	3.1598e-62	3.2836e-59	2.6759e-56	1.7168e-53	8.7051e-51	3.5025e-48	1.1227e-45	2.8785e-43	5.9284e-41	9.85e-39	1.3264e-36	1.4547e-34	1.3062e-32	9.655e-31	5.9076e-29	3.0091e-27	1.2828e-25	4.6012e-24	1.3951e-22	3.5919e-21	7.8863e-20	1.4827e-18	2.3969e-17	3.3463e-16	4.0526e-15	4.2774e-14	3.9536e-13	3.2159e-12	2.3136e-11	1.4796e-10	8.4539e-10	4.3379e-09	2.0094e-08	8.4467e-08	3.2393e-07	1.1394e-06	3.6952e-06	1.1109e-05	3.1112e-05	8.1576e-05	0.00020116	0.00046847	0.0010342	0.0021715	0.0043488	0.0083274	0.015279	0.026914	0.045588	0.074368	0.11701	0.17783	0.26141	0.37219	0.51399	0.68944	0.89953	1.1432	1.4174	1.7169	2.0348	2.3631	2.6933	3.017	3.3267	3.616	3.8802	4.1158	4.3213	4.4964	4.6417	4.7589	4.8497	4.9163	4.9605	4.9839	4.9875	4.9718	4.9366	4.8813	4.8047	4.7053	4.5813	4.4314	4.2542	4.0493	3.8173	3.5597	3.2795	2.9812	2.6704	2.354	2.0394	1.7341	1.4453	1.1793	0.94082	0.73306	0.55725	0.41287	0.29789	0.20916	0.14285	0.09486	0.061247	0.038452	0.023481	0.013952	0.0080691	0.0045435	0.0024903	0.0013277	0.0006875	0.00034496	0.00016715	7.7883e-05	3.4713e-05	1.4712e-05	5.89e-06	2.212e-06	7.737e-07	2.502e-07	7.426e-08	2.0085e-08	4.9151e-09	1.0808e-09	2.1208e-10	3.689e-11	5.6503e-12	7.571e-13	8.8177e-14	8.8707e-15	7.6613e-16	5.6474e-17	3.5335e-18	1.8674e-19	8.3013e-21	3.0956e-22	9.6743e-24	2.5387e-25	5.6251e-27	1.0623e-28	1.7302e-30	2.4553e-32	3.0455e-34	3.2799e-36	3.0227e-38	2.3428e-40	1.5033e-42	7.8863e-45	3.3511e-47	1.1454e-49	3.1322e-52	6.8229e-55	1.1794e-57	1.6124e-60	1.738e-63	1.4729e-66	9.7876e-70	5.0876e-73	2.064e-76	6.5226e-80	1.6027e-83	3.0571e-87	4.5211e-91	5.1779e-95	4.5886e-99	3.1444e-103	1.6656e-107	6.8196e-112	2.1583e-116	5.2825e-121	1.0005e-125	1.4677e-130	1.6697e-135	1.4752e-140	1.014e-145	5.4333e-151	2.2747e-156	7.4601e-162	1.922e-167	3.9022e-173	6.2646e-179	7.9818e-185	8.1032e-191	6.5827e-197	4.2982e-203	2.2668e-209	9.7038e-216	3.3901e-222	9.7196e-229	2.3003e-235	4.5216e-242	7.429e-249	1.027e-255	1.2029e-262	1.2021e-269	1.0327e-276	7.6834e-284	4.9902e-291	2.852e-298	1.4462e-305	6.5624e-313	2.6877e-320	0	0	0	0	0	0	0	0	0	0
0	0	0	0	0	0	0	0	0	0	0	0	0	0	0	0	0	0	0	0	0	0	0	0	0	0	0	0	0	0	0	0	0	0	0	0	4.9407e-324	1.1865e-316	3.7498e-309	1.0661e-301	2.7134e-294	6.1534e-287	1.2376e-279	2.1957e-272	3.413e-265	4.6089e-258	5.3538e-251	5.2916e-244	4.4003e-237	3.045e-230	1.7356e-223	8.0721e-217	3.0377e-210	9.1803e-204	2.2131e-197	4.23e-191	6.3758e-185	7.5415e-179	6.9692e-173	5.0116e-167	2.7943e-161	1.2041e-155	3.9987e-150	1.0207e-144	1.9983e-139	2.9946e-134	3.4298e-129	2.9982e-124	1.9985e-119	1.015e-114	3.9262e-110	1.1566e-105	2.595e-101	4.4366e-97	5.7842e-93	5.7566e-89	4.3791e-85	2.5504e-81	1.1393e-77	3.9127e-74	1.0355e-70	2.1181e-67	3.3583e-64	4.1413e-61	3.9862e-58	3.0061e-55	1.7832e-52	8.3539e-50	3.1036e-47	9.1825e-45	2.1726e-42	4.1283e-40	6.3268e-38	7.8544e-36	7.9346e-34	6.5534e-32	4.4473e-30	2.4928e-28	1.1605e-26	4.5127e-25	1.4744e-23	4.0717e-22	9.5595e-21	1.919e-19	3.3121e-18	4.9411e-17	6.4045e-16	7.2489e-15	7.1994e-14	6.3044e-13	4.8904e-12	3.3759e-11	2.0833e-10	1.1545e-09	5.771e-09	2.614e-08	1.078e-07	4.0663e-07	1.4099e-06	4.5158e-06	1.3426e-05	3.7233e-05	9.6761e-05	0.00023668	0.00054711	0.0011995	0.0025024	0.004981	0.009483	0.017304	0.030317	0.051087	0.082923	0.12984	0.19638	0.28734	0.40726	0.55994	0.74785	0.97167	1.2299	1.519	1.833	2.1645	2.505	2.8457	3.1778	3.4937	3.7871	4.0534	4.2896	4.4943	4.6677	4.8109	4.9256	5.0142	5.0789	5.1218	5.1446	5.1483	5.1334	5.0996	5.0461	4.9714	4.8738	4.7513	4.6019	4.4242	4.2174	3.9815	3.7182	3.4303	3.1222	2.8	2.4706	2.142	1.8223	1.5192	1.2395	0.98852	0.76966	0.58439	0.43228	0.31124	0.21795	0.14835	0.098122	0.063048	0.039358	0.023875	0.014077	0.0080709	0.0045002	0.00244	0.0012855	0.00065722	0.0003253	0.00015537	7.13e-05	3.1275e-05	1.3034e-05	5.1271e-06	1.8902e-06	6.4842e-07	2.0547e-07	5.9705e-08	1.5796e-08	3.7784e-09	8.1148e-10	1.5542e-10	2.6369e-11	3.9369e-12	5.1386e-13	5.8256e-14	5.6999e-15	4.7824e-16	3.4195e-17	2.071e-18	1.0561e-19	4.5087e-21	1.6032e-22	4.7266e-24	1.1513e-25	2.3124e-27	3.8325e-29	5.2647e-31	6.0505e-33	5.9013e-35	4.9643e-37	3.6423e-39	2.3291e-41	1.2808e-43	5.9371e-46	2.2748e-48	7.0934e-51	1.7803e-53	3.5684e-56	5.6805e-59	7.1511e-62	7.094e-65	5.5289e-68	3.3762e-71	1.6114e-74	5.9981e-78	1.7377e-81	3.9115e-85	6.8302e-89	9.2401e-93	9.6742e-97	7.8321e-101	4.9001e-105	2.3684e-109	8.8427e-114	2.5507e-118	5.687e-123	9.807e-128	1.3093e-132	1.355e-137	1.0885e-142	6.8008e-148	3.311e-153	1.2591e-158	3.7497e-164	8.7698e-170	1.616e-175	2.354e-181	2.7211e-187	2.5058e-193	1.8463e-199	1.0933e-205	5.2286e-212	2.0297e-218	6.4302e-225	1.6718e-231	3.5883e-238	6.3971e-245	9.5338e-252	1.1957e-258	1.2708e-265	1.1526e-272	8.9884e-280	6.0728e-287	3.5826e-294	1.8605e-301	8.5758e-309	3.5386e-316	1.4822e-323	0	0	0	0	0	0	0	0	0	0
0	0	0	0	0	0	0	0	0	0	0	0	0	0	0	0	0	0	0	0	0	0	0	0	0	0	0	0	0	0	0	0	0	0	0	0	3.8587e-321	1.2239e-313	3.4901e-306	8.8874e-299	2.0078e-291	4.0009e-284	6.9963e-277	1.0687e-269	1.4199e-262	1.6332e-255	1.6172e-248	1.3694e-241	9.8358e-235	5.937e-228	2.982e-221	1.2339e-214	4.1662e-208	1.1375e-201	2.4915e-195	4.3461e-189	5.9991e-183	6.5157e-177	5.5402e-171	3.6717e-165	1.8891e-159	7.5194e-154	2.3084e-148	5.4511e-143	9.8781e-138	1.371e-132	1.4549e-127	1.179e-122	7.2875e-118	3.4337e-113	1.2327e-108	3.3715e-104	7.026e-100	1.1161e-95	1.3524e-91	1.2513e-87	8.8523e-84	4.7953e-80	1.9928e-76	6.3668e-73	1.5675e-69	2.9821e-66	4.3966e-63	5.0396e-60	4.5067e-57	3.1559e-54	1.7373e-51	7.5493e-49	2.6004e-46	7.131e-44	1.5637e-41	2.7539e-39	3.9127e-37	4.5049e-35	4.222e-33	3.2358e-31	2.0377e-29	1.0595e-27	4.5722e-26	1.6464e-24	4.9751e-23	1.2691e-21	2.7496e-20	5.0917e-19	8.11e-18	1.1182e-16	1.3429e-15	1.4135e-14	1.3115e-13	1.0787e-12	7.9047e-12	5.1864e-11	3.0603e-10	1.6308e-09	7.8809e-09	3.4673e-08	1.3946e-07	5.1489e-07	1.7527e-06	5.525e-06	1.6201e-05	4.4391e-05	0.00011415	0.0002766	0.00063402	0.0013795	0.0028578	0.0056519	0.010695	0.019405	0.033813	0.056682	0.091542	0.14264	0.21473	0.31275	0.44131	0.60416	0.80358	1.0399	1.3112	1.6134	1.94	2.2831	2.6338	2.9828	3.3214	3.6417	3.9377	4.2049	4.4405	4.6438	4.8149	4.9555	5.0677	5.154	5.2169	5.2586	5.2809	5.2849	5.2709	5.2387	5.1872	5.1148	5.0194	4.8987	4.7506	4.573	4.365	4.1264	3.8584	3.564	3.2476	2.9153	2.5745	2.2335	1.901	1.5851	1.2932	1.0309	0.8021	0.60836	0.44934	0.3229	0.22556	0.15308	0.10088	0.064535	0.040077	0.024162	0.014145	0.0080423	0.0044417	0.0023823	0.00124	0.00062554	0.00030513	0.00014345	6.4728e-05	2.7888e-05	1.1405e-05	4.3979e-06	1.5881e-06	5.3312e-07	1.6518e-07	4.6892e-08	1.2111e-08	2.826e-09	5.9168e-10	1.104e-10	1.8239e-11	2.6501e-12	3.3648e-13	3.7092e-14	3.5273e-15	2.8753e-16	1.9963e-17	1.1732e-18	5.7995e-20	2.397e-21	8.2339e-23	2.3374e-24	5.4537e-26	1.0408e-27	1.6179e-29	2.0426e-31	2.0926e-33	1.744e-35	1.1912e-37	6.7627e-40	3.2561e-42	1.3571e-44	4.9466e-47	1.5654e-49	4.2116e-52	9.4005e-55	1.706e-57	2.4817e-60	2.8672e-63	2.6146e-66	1.8738e-69	1.0519e-72	4.6132e-76	1.5768e-79	4.1924e-83	8.655e-87	1.3853e-90	1.7168e-94	1.6458e-98	1.2193e-102	6.9774e-107	3.0832e-111	1.052e-115	2.7719e-120	5.6433e-125	8.883e-130	1.0822e-134	1.0216e-139	7.4851e-145	4.2638e-150	1.8923e-155	6.5586e-161	1.7798e-166	3.7929e-172	6.3674e-178	8.45e-184	8.8978e-190	7.4642e-196	5.0098e-202	2.7026e-208	1.1776e-214	4.1652e-221	1.2025e-227	2.8494e-234	5.5751e-241	9.0624e-248	1.2318e-254	1.4093e-261	1.3667e-268	1.1316e-275	8.0582e-283	4.9734e-290	2.6814e-297	1.2731e-304	5.3678e-312	2.027e-319	0	0	0	0	0	0	0	0	0	0	0
0	0	0	0	0	0	0	0	0	0	0	0	0	0	0	0	0	0	0	0	0	0	0	0	0	0	0	0	0	0	0	0	0	0	0	0	4.7873e-318	1.3799e-310	3.568e-303	8.2097e-296	1.6683e-288	2.9728e-281	4.6155e-274	6.2078e-267	7.1958e-260	7.1558e-253	6.0793e-246	4.3937e-239	2.6889e-232	1.3858e-225	5.9758e-219	2.1395e-212	6.3069e-206	1.5173e-199	2.9533e-193	4.6126e-187	5.7371e-181	5.6439e-175	4.3651e-169	2.6402e-163	1.2431e-157	4.5379e-152	1.2799e-146	2.7806e-141	4.6417e-136	5.9405e-131	5.8185e-126	4.3554e-121	2.4887e-116	1.0848e-111	3.6051e-107	9.1331e-103	1.7641e-98	2.5988e-94	2.9222e-90	2.5104e-86	1.6498e-82	8.306e-79	3.2096e-75	9.5383e-72	2.1852e-68	3.8692e-65	5.3101e-62	5.6663e-59	4.7171e-56	3.0747e-53	1.5752e-50	6.3687e-48	2.0407e-45	5.2048e-43	1.0614e-40	1.7387e-38	2.2983e-36	2.4629e-34	2.1498e-32	1.5355e-30	9.0185e-29	4.3763e-27	1.7634e-25	5.9303e-24	1.6735e-22	3.9854e-21	8.0564e-20	1.391e-18	2.0646e-17	2.6517e-16	2.9673e-15	2.9129e-14	2.5254e-13	1.9464e-12	1.3417e-11	8.3191e-11	4.6631e-10	2.3736e-09	1.1016e-08	4.6793e-08	1.8258e-07	6.5676e-07	2.1863e-06	6.7615e-06	1.9505e-05	5.2697e-05	0.00013386	0.00032095	0.00072886	0.0015728	0.0032341	0.0063526	0.011946	0.021547	0.03734	0.062266	0.10006	0.15515	0.23249	0.3371	0.47362	0.64571	0.85543	1.1028	1.3855	1.6988	2.0359	2.3885	2.7472	3.1025	3.4456	3.7688	4.066	4.3329	4.5673	4.7685	4.9371	5.075	5.1847	5.2688	5.33	5.3707	5.3926	5.397	5.3842	5.3536	5.3043	5.2342	5.1412	5.0226	4.8759	4.699	4.4904	4.2498	3.9782	3.6785	3.3551	3.0143	2.6638	2.3122	1.9686	1.6416	1.3391	1.0671	0.82966	0.62863	0.46368	0.33261	0.23184	0.15691	0.10307	0.065677	0.040595	0.024337	0.014153	0.0079843	0.0043695	0.0023188	0.0011924	0.00059324	0.00028493	0.0001317	5.8335e-05	2.4639e-05	9.8662e-06	3.7213e-06	1.313e-06	4.3033e-07	1.3006e-07	3.5991e-08	9.0546e-09	2.0566e-09	4.1887e-10	7.5986e-11	1.2198e-11	1.7213e-12	2.1218e-13	2.2701e-14	2.0945e-15	1.6561e-16	1.1151e-17	6.3543e-19	3.045e-20	1.2196e-21	4.058e-23	1.1149e-24	2.5147e-26	4.6296e-28	6.9194e-30	8.3533e-32	8.1083e-34	6.3052e-36	3.9191e-38	1.9476e-40	7.773e-43	2.5189e-45	6.7595e-48	1.543e-50	3.0699e-53	5.3599e-56	8.082e-59	1.0229e-61	1.0578e-64	8.764e-68	5.7476e-71	2.9614e-74	1.1932e-77	3.7477e-81	9.1534e-85	1.7352e-88	2.5493e-92	2.8987e-96	2.5484e-100	1.7309e-104	9.0775e-109	3.6749e-113	1.1484e-117	2.7706e-122	5.1634e-127	7.4386e-132	8.2923e-137	7.1621e-142	4.8003e-147	2.5012e-152	1.0153e-157	3.2185e-163	7.9883e-169	1.557e-174	2.3907e-180	2.9021e-186	2.7955e-192	2.1456e-198	1.3178e-204	6.5064e-211	2.5951e-217	8.4047e-224	2.2223e-230	4.8243e-237	8.6503e-244	1.289e-250	1.6068e-257	1.6866e-264	1.5012e-271	1.1412e-278	7.4657e-286	4.2349e-293	2.0996e-300	9.1717e-308	3.5599e-315	1.2352e-322	0	0	0	0	0	0	0	0	0	0	0
0	0	0	0	0	0	0	0	0	0	0	0	0	0	0	0	0	0	0	0	0	0	0	0	0	0	0	0	0	0	0	0	0	0	0	2.2233e-322	6.3857e-315	1.6667e-307	3.8999e-300	8.1092e-293	1.4861e-285	2.382e-278	3.315e-271	3.9784e-264	4.0917e-257	3.586e-250	2.6646e-243	1.6711e-236	8.8099e-230	3.8889e-223	1.4316e-216	4.3751e-210	1.1042e-203	2.2872e-197	3.8613e-191	5.2739e-185	5.7835e-179	5.0547e-173	3.4968e-167	1.9028e-161	8.0989e-156	2.6834e-150	6.892e-145	1.3673e-139	2.0888e-134	2.4513e-129	2.2051e-124	1.5182e-119	7.9889e-115	3.2104e-110	9.8468e-106	2.3045e-101	4.1159e-97	5.6116e-93	5.8447e-89	4.6545e-85	2.8378e-81	1.3265e-77	4.7624e-74	1.3159e-70	2.8045e-67	4.6224e-64	5.9083e-61	5.8742e-58	4.558e-55	2.7698e-52	1.3232e-49	4.9894e-47	1.4911e-44	3.5473e-42	6.7483e-40	1.0313e-37	1.2722e-35	1.2729e-33	1.0379e-31	6.9301e-30	3.8081e-28	1.7306e-26	6.5365e-25	2.0624e-23	5.4648e-22	1.2226e-20	2.3223e-19	3.7679e-18	5.254e-17	6.3374e-16	6.6577e-15	6.1345e-14	4.9933e-13	3.6163e-12	2.3466e-11	1.3734e-10	7.2927e-10	3.5321e-09	1.5675e-08	6.3992e-08	2.4118e-07	8.42e-07	2.732e-06	8.2664e-06	2.3406e-05	6.2241e-05	0.00015598	0.00036964	0.000831	0.0017774	0.0036261	0.0070723	0.013214	0.023691	0.040826	0.067721	0.10828	0.1671	0.24925	0.35983	0.50346	0.68366	0.90227	1.159	1.4511	1.7734	2.1189	2.4787	2.8432	3.2029	3.5488	3.8733	4.1705	4.4365	4.669	4.8677	5.0337	5.169	5.2763	5.3584	5.4182	5.458	5.4799	5.4848	5.4731	5.4443	5.397	5.3293	5.2386	5.1221	4.977	4.801	4.5922	4.3502	4.0759	3.772	3.443	3.0953	2.7368	2.3764	2.0236	1.6875	1.3762	1.0962	0.85171	0.64471	0.47494	0.34015	0.23663	0.15977	0.10464	0.066449	0.0409	0.024398	0.014103	0.007899	0.0042856	0.0022512	0.0011438	0.0005612	0.00026529	0.00012044	5.2302e-05	2.162e-05	8.4596e-06	3.1138e-06	1.071e-06	3.4183e-07	1.0053e-07	2.7051e-08	6.613e-09	1.4587e-09	2.8834e-10	5.0741e-11	7.8971e-12	1.08e-12	1.2896e-13	1.336e-14	1.1934e-15	9.1333e-17	5.9519e-18	3.2821e-19	1.5221e-20	5.9e-22	1.8998e-23	5.0514e-25	1.1024e-26	1.9634e-28	2.837e-30	3.3077e-32	3.095e-34	2.3125e-36	1.3732e-38	6.4538e-41	2.3931e-43	6.9907e-46	1.6109e-48	2.9472e-51	4.3459e-54	5.3015e-57	5.5367e-60	5.0871e-63	4.1164e-66	2.8584e-69	1.645e-72	7.63e-76	2.8019e-79	8.0645e-83	1.8089e-86	3.1514e-90	4.2551e-94	4.4461e-98	3.5911e-102	2.2403e-106	1.079e-110	4.0105e-115	1.1505e-119	2.5478e-124	4.358e-129	5.7618e-134	5.8944e-139	4.6721e-144	2.8737e-149	1.3742e-154	5.12e-160	1.4898e-165	3.3946e-171	6.075e-177	8.5666e-183	9.5521e-189	8.454e-195	5.9631e-201	3.3668e-207	1.5286e-213	5.6087e-220	1.6716e-226	4.0688e-233	8.135e-240	1.344e-246	1.8461e-253	2.1223e-260	2.0555e-267	1.6891e-274	1.1862e-281	7.1718e-289	3.7623e-296	1.726e-303	6.9817e-311	2.5108e-318	0	0	0	0	0	0	0	0	0	0	0	0
0	0	0	0	0	0	0	0	0	0	0	0	0	0	0	0	0	0	0	0	0	0	0	0	0	0	0	0	0	0	0	0	0	0	0	3.9122e-319	9.2705e-312	2.1438e-304	4.505e-297	8.429e-290	1.3896e-282	2.0015e-275	2.4994e-268	2.6862e-261	2.4675e-254	1.9248e-247	1.2675e-240	7.0073e-234	3.2366e-227	1.2435e-220	3.9585e-214	1.0403e-207	2.249e-201	3.9842e-195	5.7593e-189	6.7595e-183	6.4055e-177	4.8711e-171	2.9538e-165	1.4192e-159	5.3702e-154	1.5915e-148	3.6756e-143	6.5867e-138	9.1246e-133	9.7413e-128	7.9941e-123	5.0326e-118	2.4266e-113	8.9512e-109	2.5242e-104	5.4395e-100	8.9571e-96	1.1274e-91	1.0852e-87	7.9966e-84	4.5158e-80	1.9572e-76	6.5218e-73	1.6741e-69	3.3177e-66	5.089e-63	6.0583e-60	5.6142e-57	4.0631e-54	2.3043e-51	1.0279e-48	3.6208e-46	1.0113e-43	2.2492e-41	4.0014e-39	5.7208e-37	6.6042e-35	6.1862e-33	4.7249e-31	2.9574e-29	1.5246e-27	6.5058e-26	2.3098e-24	6.8581e-23	1.7118e-21	3.6112e-20	6.4739e-19	9.9195e-18	1.3068e-16	1.4894e-15	1.4783e-14	1.2867e-13	9.8907e-13	6.7648e-12	4.1475e-11	2.2961e-10	1.1557e-09	5.3216e-09	2.2539e-08	8.8208e-08	3.2022e-07	1.0819e-06	3.4129e-06	1.0081e-05	2.7967e-05	7.309e-05	0.00018049	0.0004224	0.00093943	0.0019906	0.0040277	0.0077983	0.014474	0.025792	0.044197	0.072924	0.11602	0.17821	0.26463	0.38042	0.53013	0.71714	0.94304	1.2072	1.5067	1.8359	2.1874	2.5521	2.9204	3.2825	3.6296	3.9541	4.2504	4.5146	4.7449	4.9412	5.1046	5.2375	5.3427	5.4231	5.4817	5.5211	5.5429	5.5485	5.5379	5.5107	5.4654	5.3998	5.3112	5.1966	5.0531	4.878	4.6693	4.4264	4.1501	3.8431	3.5097	3.1567	2.7919	2.4248	2.0649	1.7217	1.4037	1.1176	0.8677	0.65622	0.48286	0.34532	0.23981	0.16158	0.10556	0.066833	0.040988	0.024343	0.013997	0.0077887	0.0041927	0.0021815	0.0010957	0.00053036	0.00024676	0.00011	4.6798e-05	1.8911e-05	7.2192e-06	2.5881e-06	8.6583e-07	2.6848e-07	7.664e-08	2.0001e-08	4.7392e-09	1.0126e-09	1.938e-10	3.3002e-11	4.968e-12	6.5687e-13	7.5802e-14	7.5868e-15	6.5451e-16	4.8369e-17	3.0433e-18	1.6203e-19	7.255e-21	2.7156e-22	8.4457e-24	2.1694e-25	4.5751e-27	7.8753e-29	1.1001e-30	1.24e-32	1.1217e-34	8.1e-37	4.6448e-39	2.1048e-41	7.5026e-44	2.0947e-46	4.5644e-49	7.7418e-52	1.0213e-54	1.0504e-57	8.4956e-61	5.5058e-64	2.9544e-67	1.3685e-70	5.6333e-74	2.0484e-77	6.3507e-81	1.6144e-84	3.2729e-88	5.2086e-92	6.4537e-96	6.1992e-100	4.6062e-104	2.6442e-108	1.1718e-112	4.0082e-117	1.0581e-121	2.1564e-126	3.3945e-131	4.1305e-136	3.8896e-141	2.8382e-146	1.6074e-151	7.0788e-157	2.4293e-162	6.5128e-168	1.3677e-173	2.2564e-179	2.9343e-185	3.0183e-191	2.4653e-197	1.6054e-203	8.3722e-210	3.5126e-216	1.1915e-222	3.2845e-229	7.3988e-236	1.3697e-242	2.0965e-249	2.6697e-256	2.8467e-263	2.5591e-270	1.9531e-277	1.2747e-284	7.1674e-292	3.4992e-299	1.4951e-306	5.6362e-314	1.8923e-321	0	0	0	0	0	0	0	0	0	0	0	0
0	0	0	0	0	0	0	0	0	0	0	0	0	0	0	0	0	0	0	0	0	0	0	0	0	0	0	0	0	0	0	0	0	0	4.1996e-322	2.3222e-315	2.0859e-308	3.165e-301	5.5523e-294	9.1757e-287	1.3509e-279	1.7409e-272	1.9449e-265	1.8689e-258	1.5333e-251	1.0668e-244	6.2532e-238	3.0694e-231	1.2546e-224	4.2482e-218	1.1862e-211	2.7199e-205	5.1026e-199	7.8053e-193	9.7041e-187	9.7742e-181	7.9475e-175	5.1964e-169	2.72e-163	1.1343e-157	3.7488e-152	9.7686e-147	1.9967e-141	3.1861e-136	3.9521e-131	3.7964e-126	2.8152e-121	1.6074e-116	7.0524e-112	2.3737e-107	6.1229e-103	1.2095e-98	1.8293e-94	2.1186e-90	1.8796e-86	1.2784e-82	6.6734e-79	2.6772e-75	8.2682e-72	1.9695e-68	3.6263e-65	5.1736e-62	5.7348e-59	4.9535e-56	3.3446e-53	1.7713e-50	7.3845e-48	2.4328e-45	6.3594e-43	1.3246e-40	2.2083e-38	2.9601e-36	3.2056e-34	2.8184e-32	2.0217e-30	1.1892e-28	5.766e-27	2.3162e-25	7.749e-24	2.1704e-22	5.1161e-21	1.0204e-19	1.7316e-18	2.5139e-17	3.1406e-16	3.3966e-15	3.2003e-14	2.6444e-13	1.9298e-12	1.2529e-11	7.2912e-11	3.8326e-10	1.8334e-09	8.0377e-09	3.2498e-08	1.2184e-07	4.2549e-07	1.3891e-06	4.2529e-06	1.2244e-05	3.3236e-05	8.5271e-05	0.00020731	0.00047878	0.0010528	0.0022092	0.004432	0.0085164	0.015699	0.027804	0.047373	0.077752	0.12309	0.18819	0.27825	0.39836	0.55299	0.74536	0.97684	1.2465	1.5511	1.8849	2.2401	2.6076	2.9775	3.3403	3.6871	4.0105	4.3049	4.567	4.7948	4.9886	5.1498	5.2806	5.384	5.4632	5.5211	5.5602	5.5823	5.5885	5.579	5.5532	5.5095	5.4457	5.3588	5.2459	5.1036	4.9293	4.7208	4.4774	4.1997	3.8905	3.5541	3.1973	2.8282	2.4563	2.0915	1.7435	1.4209	1.1306	0.87723	0.66285	0.48721	0.34799	0.2413	0.1623	0.1058	0.066817	0.040854	0.024174	0.013837	0.0076567	0.0040931	0.0021116	0.0010496	0.00050163	0.00022989	0.00010069	4.1973e-05	1.6577e-05	6.1704e-06	2.1524e-06	6.9933e-07	2.103e-07	5.8147e-08	1.4684e-08	3.3644e-09	6.9471e-10	1.2842e-10	2.1114e-11	3.0675e-12	3.913e-13	4.3551e-14	4.2028e-15	3.4952e-16	2.4895e-17	1.5096e-18	7.7466e-20	3.3438e-21	1.2069e-22	3.6214e-24	8.9797e-26	1.8295e-27	3.0451e-29	4.1176e-31	4.4987e-33	3.9504e-35	2.7742e-37	1.5507e-39	6.8698e-42	2.4029e-44	6.6156e-47	1.4305e-49	2.4272e-52	3.2336e-55	3.3919e-58	2.8152e-61	1.8618e-64	9.8906e-68	4.25e-71	1.4828e-74	4.1967e-78	9.5907e-82	1.7582e-85	2.5695e-89	2.9805e-93	2.737e-97	1.9882e-101	1.1424e-105	5.1918e-110	1.8654e-114	5.2923e-119	1.1832e-123	2.0799e-128	2.8678e-133	3.0954e-138	2.6114e-143	1.7206e-148	8.8522e-154	3.558e-159	1.1184e-164	2.754e-170	5.3236e-176	8.099e-182	9.7259e-188	9.2498e-194	6.9925e-200	4.2185e-206	2.0398e-212	7.9416e-219	2.5017e-225	6.4096e-232	1.3429e-238	2.3141e-245	3.2993e-252	3.9165e-259	3.8961e-266	3.2701e-273	2.332e-280	1.4233e-287	7.4906e-295	3.4256e-302	1.3723e-309	4.8547e-317	0	0	0	0	0	0	0	0	0	0	0	0	0
0	0	0	0	0	0	0	0	0	0	0	0	0	0	0	0	0	0	0	0	0	0	0	0	0	0	0	0	0	0	0	0	0	4.9407e-324	1.8749e-317	7.2008e-311	2.7794e-304	1.2815e-297	9.6676e-291	1.1117e-283	1.3768e-276	1.5615e-269	1.5499e-262	1.3257e-255	9.6843e-249	5.997e-242	3.1269e-235	1.364e-228	4.9479e-222	1.4842e-215	3.6624e-209	7.3989e-203	1.2185e-196	1.6295e-190	1.7636e-184	1.5398e-178	1.0816e-172	6.0945e-167	2.747e-161	9.8736e-156	2.8202e-150	6.3773e-145	1.1371e-139	1.592e-134	1.743e-129	1.4866e-124	9.842e-120	5.0424e-115	1.9941e-110	6.0743e-106	1.4231e-101	2.5614e-97	3.5397e-93	3.7551e-89	3.0587e-85	1.9141e-81	9.2109e-78	3.4125e-74	9.749e-71	2.1516e-67	3.676e-64	4.8735e-61	5.0268e-58	4.0455e-55	2.5482e-52	1.2604e-49	4.9133e-47	1.5151e-44	3.7105e-42	7.2476e-40	1.134e-37	1.4277e-35	1.4534e-33	1.202e-31	8.1162e-30	4.4975e-28	2.0559e-26	7.793e-25	2.4625e-23	6.5211e-22	1.455e-20	2.7502e-19	4.4279e-18	6.1063e-17	7.254e-16	7.4673e-15	6.7017e-14	5.2776e-13	3.6715e-12	2.2725e-11	1.2608e-10	6.3186e-10	2.8829e-09	1.2066e-08	4.6655e-08	1.6771e-07	5.6343e-07	1.7765e-06	5.2749e-06	1.4789e-05	3.9243e-05	9.8768e-05	0.00023625	0.00053815	0.0011695	0.0024293	0.004831	0.0092113	0.016863	0.029678	0.050277	0.082085	0.12931	0.19681	0.28976	0.41321	0.5715	0.76767	1.0029	1.276	1.5836	1.9196	2.2762	2.6442	3.0138	3.3755	3.7206	4.0418	4.3339	4.5934	4.8188	5.0103	5.1694	5.2986	5.4009	5.4792	5.5367	5.5758	5.5982	5.6052	5.5966	5.572	5.5296	5.467	5.3815	5.2696	5.1283	4.9545	4.7462	4.5025	4.224	3.9134	3.5753	3.2162	2.8447	2.4701	2.1027	1.7522	1.4273	1.135	0.88002	0.66439	0.48787	0.34808	0.24105	0.16189	0.10536	0.0664	0.040501	0.023894	0.013627	0.0075063	0.0039898	0.0020435	0.0010067	0.00047582	0.00021515	9.2733e-05	3.794e-05	1.4666e-05	5.3289e-06	1.8101e-06	5.7148e-07	1.6668e-07	4.4633e-08	1.0904e-08	2.4148e-09	4.8173e-10	8.6011e-11	1.3658e-11	1.9169e-12	2.3631e-13	2.5432e-14	2.3751e-15	1.9135e-16	1.3222e-17	7.7922e-19	3.8955e-20	1.6432e-21	5.8199e-23	1.7224e-24	4.2406e-26	8.6517e-28	1.4576e-29	2.0219e-31	2.3043e-33	2.1541e-35	1.65e-37	1.0347e-39	5.3059e-42	2.2215e-44	7.5729e-47	2.0938e-49	4.6721e-52	8.3669e-55	1.1955e-57	1.3554e-60	1.2129e-63	8.5297e-67	4.6955e-70	2.0168e-73	6.741e-77	1.7494e-80	3.5189e-84	5.4778e-88	6.592e-92	6.1274e-96	4.3968e-100	2.4348e-104	1.0406e-108	3.4328e-113	8.7465e-118	1.7225e-122	2.6247e-127	3.0988e-132	2.8392e-137	2.0225e-142	1.1226e-147	4.8672e-153	1.6528e-158	4.4092e-164	9.2712e-170	1.542e-175	2.0366e-181	2.1448e-187	1.8089e-193	1.2276e-199	6.7373e-206	3.0057e-212	1.0961e-218	3.2861e-225	8.1489e-232	1.682e-238	2.9089e-245	4.2439e-252	5.2601e-259	5.5796e-266	5.1035e-273	4.0567e-280	2.8249e-287	1.7374e-294	9.5187e-302	4.6856e-309	2.0908e-316	9.8813e-324	0	0	0	0	0	0	0	0	0	0	0	0
0	0	0	0	0	0	0	0	0	0	0	0	0	0	0	0	0	0	0	0	0	0	0	0	0	0	0	0	0	0	0	0	0	3.8422e-319	9.1283e-313	2.947e-306	9.2482e-300	2.7799e-293	8.4137e-287	3.123e-280	1.8519e-273	1.5211e-266	1.2747e-259	9.5607e-253	6.1767e-246	3.3898e-239	1.5671e-232	6.0611e-226	1.949e-219	5.1799e-213	1.1315e-206	2.0212e-200	2.9384e-194	3.4613e-188	3.291e-182	2.5167e-176	1.5432e-170	7.5663e-165	2.9589e-159	9.2078e-154	2.2747e-148	4.4505e-143	6.8777e-138	8.3717e-133	8.002e-128	5.9876e-123	3.4963e-118	1.5885e-113	5.6001e-109	1.5284e-104	3.2231e-100	5.2439e-96	6.5758e-92	6.3521e-88	4.726e-84	2.709e-80	1.1972e-76	4.083e-73	1.0761e-69	2.1956e-66	3.4745e-63	4.2742e-60	4.0979e-57	3.0704e-54	1.8033e-51	8.3293e-49	3.0361e-46	8.7662e-44	2.0127e-41	3.6899e-39	5.4247e-37	6.4241e-35	6.1568e-33	4.7983e-31	3.056e-29	1.5987e-27	6.9051e-26	2.4754e-24	7.4045e-23	1.8581e-21	3.9329e-20	7.0599e-19	1.0808e-17	1.4188e-16	1.6064e-15	1.5778e-14	1.3524e-13	1.018e-12	6.7729e-12	4.0108e-11	2.1294e-10	1.0214e-09	4.461e-09	1.7883e-08	6.63e-08	2.2893e-07	7.4071e-07	2.2567e-06	6.4984e-06	1.7738e-05	4.5996e-05	0.00011351	0.00026702	0.00059967	0.0012876	0.0026469	0.0052163	0.0098673	0.017937	0.031368	0.052836	0.08581	0.13453	0.20384	0.29888	0.42459	0.58519	0.78354	1.0206	1.2951	1.6033	1.9393	2.295	2.6615	3.0289	3.3879	3.73	4.0482	4.3373	4.594	4.8169	5.0064	5.1639	5.292	5.3935	5.4715	5.529	5.5683	5.5912	5.5988	5.5911	5.5673	5.5257	5.4639	5.3791	5.2678	5.1269	4.9534	4.7451	4.5013	4.2225	3.9114	3.5728	3.2132	2.841	2.466	2.0982	1.7475	1.4227	1.1306	0.87593	0.66077	0.48479	0.34554	0.23904	0.16035	0.10422	0.065587	0.039934	0.02351	0.013372	0.0073409	0.0038851	0.001979	0.00096808	0.00045359	0.0002029	8.6319e-05	3.4775e-05	1.3204e-05	4.7018e-06	1.5616e-06	4.8115e-07	1.3675e-07	3.5647e-08	8.4741e-09	1.8268e-09	3.551e-10	6.1904e-11	9.6262e-12	1.3284e-12	1.6186e-13	1.7334e-14	1.6242e-15	1.3261e-16	9.3977e-18	5.7597e-19	3.0422e-20	1.38e-21	5.3569e-23	1.7722e-24	4.9744e-26	1.1788e-27	2.3453e-29	3.8948e-31	5.3659e-33	6.0958e-35	5.6761e-37	4.3074e-39	2.6495e-41	1.3143e-43	5.2335e-46	1.6655e-48	4.219e-51	8.4758e-54	1.3458e-56	1.6834e-59	1.6542e-62	1.2735e-65	7.6623e-69	3.5952e-72	1.3128e-75	3.7246e-79	8.1971e-83	1.3977e-86	1.8444e-90	1.8823e-94	1.4847e-98	9.0495e-103	4.2618e-107	1.5512e-111	4.3656e-116	9.5077e-121	1.604e-125	2.099e-130	2.1338e-135	1.6884e-140	1.0421e-145	5.0289e-151	1.9027e-156	5.6606e-162	1.3286e-167	2.469e-173	3.6464e-179	4.2977e-185	4.0599e-191	3.0885e-197	1.9014e-203	9.5222e-210	3.9006e-216	1.3145e-222	3.666e-229	8.5151e-236	1.6579e-242	2.7244e-249	3.805e-256	4.5495e-263	4.692e-270	4.2063e-277	3.304e-284	2.2926e-291	1.4172e-298	7.8713e-306	3.9631e-313	1.8261e-320	0	0	0	0	0	0	0	0	0	0	0	0
0	0	0	0	0	0	0	0	0	0	0	0	0	0	0	0	0	0	0	0	0	0	0	0	0	0	0	0	0	0	0	9.8813e-324	1.5253e-318	2.1731e-313	7.1139e-308	1.2705e-301	3.333e-295	8.4815e-289	2.0295e-282	4.6004e-276	1.0545e-269	3.0132e-263	1.317e-256	7.3437e-250	4.0098e-243	1.9226e-236	7.8299e-230	2.6739e-223	7.5974e-217	1.7847e-210	3.4464e-204	5.4415e-198	6.9894e-192	7.2699e-186	6.097e-180	4.107e-174	2.2143e-168	9.5258e-163	3.2609e-157	8.8614e-152	1.9076e-146	3.2466e-141	4.3606e-136	4.6138e-131	3.8381e-126	2.5052e-121	1.2804e-116	5.1123e-112	1.5913e-107	3.8532e-103	7.2448e-99	1.056e-94	1.1918e-90	1.0406e-86	7.0255e-83	3.6677e-79	1.4812e-75	4.6303e-72	1.1218e-68	2.1094e-65	3.0838e-62	3.5127e-59	3.125e-56	2.177e-53	1.1911e-50	5.134e-48	1.7493e-45	4.729e-43	1.0181e-40	1.7528e-38	2.423e-36	2.7017e-34	2.4408e-32	1.7952e-30	1.0802e-28	5.3441e-27	2.1852e-25	7.4235e-24	2.1064e-22	5.0195e-21	1.01e-19	1.7254e-18	2.5165e-17	3.1514e-16	3.4076e-15	3.2e-14	2.6255e-13	1.8935e-12	1.2081e-11	6.8644e-11	3.4986e-10	1.6115e-09	6.7604e-09	2.6041e-08	9.2844e-08	3.087e-07	9.6367e-07	2.8402e-06	7.9375e-06	2.11e-05	5.3467e-05	0.00012936	0.00029921	0.00066235	0.0014047	0.0028573	0.0055792	0.010469	0.018894	0.032832	0.054982	0.088829	0.1386	0.2091	0.30537	0.43224	0.59376	0.79262	1.0296	1.3034	1.6101	1.9437	2.2964	2.6592	3.0227	3.3775	3.7155	4.0298	4.3153	4.5691	4.7897	4.9774	5.1337	5.261	5.3623	5.4404	5.4982	5.538	5.5615	5.5697	5.5625	5.5391	5.4979	5.4364	5.3517	5.2404	5.0994	4.9258	4.7175	4.4737	4.1951	3.8844	3.5465	3.1879	2.8172	2.4438	2.078	1.7296	1.4071	1.1174	0.86503	0.65204	0.478	0.34043	0.23531	0.15772	0.10242	0.064391	0.039164	0.023027	0.013076	0.0071639	0.0037813	0.0019193	0.00093462	0.00043538	0.00019336	8.1545e-05	3.2516e-05	1.2203e-05	4.289e-06	1.4049e-06	4.2679e-07	1.1966e-07	3.0824e-08	7.2635e-09	1.5597e-09	3.0412e-10	5.3677e-11	8.5508e-12	1.2259e-12	1.5769e-13	1.8132e-14	1.8559e-15	1.6818e-16	1.3411e-17	9.3457e-19	5.6503e-20	2.9417e-21	1.3092e-22	4.9451e-24	1.5748e-25	4.2011e-27	9.3333e-29	1.7171e-30	2.6024e-32	3.2328e-34	3.2763e-36	2.6966e-38	1.7948e-40	9.6206e-43	4.1369e-45	1.4217e-47	3.8911e-50	8.4525e-53	1.4527e-55	1.9693e-58	2.0999e-61	1.7567e-64	1.1502e-67	5.8813e-71	2.3439e-74	7.2678e-78	1.7507e-81	3.272e-85	4.7396e-89	5.3168e-93	4.6164e-97	3.1015e-101	1.6123e-105	6.486e-110	2.0203e-114	4.8761e-119	9.1282e-124	1.3271e-128	1.5009e-133	1.3227e-138	9.1034e-144	4.9044e-149	2.0739e-154	6.9037e-160	1.815e-165	3.7818e-171	6.2688e-177	8.3007e-183	8.818e-189	7.5501e-195	5.236e-201	2.9563e-207	1.3663e-213	5.1988e-220	1.6382e-226	4.3021e-233	9.4761e-240	1.7626e-246	2.7877e-253	3.7764e-260	4.4145e-267	4.4872e-274	3.9976e-281	3.147e-288	2.2073e-295	1.3916e-302	7.9758e-310	4.3654e-317	4.9407e-324	0	0	0	0	0	0	0	0	0	0	0
0	0	0	0	0	0	0	0	0	0	0	0	0	0	0	0	0	0	0	0	0	0	0	0	0	0	0	0	0	0	2.3221e-322	2.4677e-317	2.7411e-312	3.1616e-307	3.9449e-302	9.6922e-297	1.2561e-290	2.6314e-284	5.3655e-278	1.0185e-271	1.7909e-265	2.9578e-259	4.9592e-253	1.0395e-246	3.1573e-240	1.1438e-233	3.934e-227	1.1698e-220	2.9182e-214	6.0346e-208	1.0269e-201	1.4298e-195	1.6201e-189	1.4869e-183	1.1004e-177	6.5399e-172	3.1094e-166	1.1787e-160	3.5518e-155	8.4849e-150	1.6032e-144	2.3913e-139	2.8106e-134	2.5993e-129	1.889e-124	1.0773e-119	4.8153e-115	1.6848e-110	4.6077e-106	9.8372e-102	1.6373e-97	2.1217e-93	2.1385e-89	1.675e-85	1.019e-81	4.8134e-78	1.7659e-74	5.0336e-71	1.1159e-67	1.926e-64	2.5926e-61	2.7266e-58	2.2454e-55	1.4516e-52	7.3865e-50	2.9677e-47	9.4446e-45	2.3893e-42	4.8225e-40	7.7966e-38	1.0138e-35	1.065e-33	9.0771e-32	6.3072e-30	3.5901e-28	1.6823e-26	6.5227e-25	2.1036e-23	5.6727e-22	1.2861e-20	2.4647e-19	4.015e-18	5.5904e-17	6.6908e-16	6.9228e-15	6.2281e-14	4.9008e-13	3.3935e-12	2.0808e-11	1.1373e-10	5.5792e-10	2.4748e-09	1.0003e-08	3.7141e-08	1.2772e-07	4.0999e-07	1.2376e-06	3.5347e-06	9.598e-06	2.4864e-05	6.1596e-05	0.00014613	0.00033232	0.00072505	0.0015186	0.0030558	0.0059111	0.011001	0.019711	0.03403	0.056659	0.091064	0.14142	0.21245	0.30906	0.43595	0.597	0.79472	1.0298	1.3007	1.6037	1.9329	2.2805	2.6378	2.9955	3.3447	3.6774	3.9871	4.2687	4.5193	4.7376	4.9237	5.0792	5.2062	5.3076	5.3862	5.4446	5.4851	5.5092	5.5179	5.511	5.4877	5.4464	5.3845	5.2993	5.1875	5.0459	4.8719	4.6635	4.4199	4.142	3.8327	3.4967	3.1408	2.7734	2.4039	2.0425	1.6986	1.3807	1.0956	0.8475	0.63836	0.46765	0.33285	0.22994	0.15404	0.099985	0.062835	0.038204	0.022454	0.012745	0.006978	0.0036797	0.0018653	0.00090669	0.00042138	0.0001866	7.8432e-05	3.1163e-05	1.1655e-05	4.0858e-06	1.3371e-06	4.0701e-07	1.1487e-07	2.9987e-08	7.2267e-09	1.6056e-09	3.2843e-10	6.1742e-11	1.0635e-11	1.6709e-12	2.3787e-13	3.0447e-14	3.4729e-15	3.4985e-16	3.0853e-17	2.3624e-18	1.5586e-19	8.7999e-21	4.2244e-22	1.714e-23	5.8456e-25	1.6668e-26	3.9535e-28	7.7628e-30	1.2558e-31	1.6663e-33	1.8053e-35	1.5904e-37	1.1344e-39	6.5255e-42	3.0158e-44	1.1156e-46	3.2916e-49	7.7206e-52	1.435e-54	2.1072e-57	2.4379e-60	2.2163e-63	1.5794e-66	8.8042e-70	3.8312e-73	1.2992e-76	3.428e-80	7.0286e-84	1.1187e-87	1.381e-91	1.3216e-95	9.8013e-100	5.6326e-104	2.5087e-108	8.6644e-113	2.322e-117	4.8337e-122	7.8255e-127	9.8684e-132	9.711e-137	7.4725e-142	4.5071e-147	2.1364e-152	7.9819e-158	2.3581e-163	5.5276e-169	1.032e-174	1.5408e-180	1.8476e-186	1.7875e-192	1.402e-198	8.9618e-205	4.6933e-211	2.0253e-217	7.2437e-224	2.1607e-230	5.41e-237	1.1446e-243	2.0604e-250	3.1787e-257	4.2337e-264	4.9055e-271	4.9839e-278	4.476e-285	3.5867e-292	2.6221e-299	2.1206e-306	5.2283e-313	4.0797e-319	0	0	0	0	0	0	0	0	0	0	0
0	0	0	0	0	0	0	0	0	0	0	0	0	0	0	0	0	0	0	0	0	0	0	0	0	0	0	0	0	6.1215e-321	5.358e-316	4.9172e-311	4.7009e-306	4.6505e-301	4.7379e-296	5.1246e-291	9.4745e-286	8.5929e-280	1.4102e-273	2.2749e-267	3.3927e-261	4.634e-255	5.7896e-249	6.7445e-243	7.9841e-237	1.1688e-230	2.3416e-224	5.3064e-218	1.1156e-211	2.0024e-205	2.9838e-199	3.6486e-193	3.6364e-187	2.9382e-181	1.9158e-175	1.0037e-169	4.2085e-164	1.4073e-158	3.7407e-153	7.881e-148	1.3127e-142	1.7249e-137	1.7847e-132	1.4517e-127	9.2713e-123	4.6441e-118	1.8229e-113	5.6028e-109	1.3475e-104	2.5339e-100	3.7236e-96	4.2731e-92	3.8273e-88	2.6742e-84	1.4572e-80	6.1915e-77	2.0515e-73	5.3034e-70	1.0703e-66	1.6882e-63	2.0838e-60	2.0162e-57	1.5324e-54	9.1688e-52	4.3302e-49	1.6188e-46	4.8053e-44	1.1365e-41	2.149e-39	3.2617e-37	3.9893e-35	3.9485e-33	3.1766e-31	2.0868e-29	1.1246e-27	4.9969e-26	1.8396e-24	5.6403e-23	1.4478e-21	3.1283e-20	5.7205e-19	8.9017e-18	1.1854e-16	1.3584e-15	1.3474e-14	1.1634e-13	8.7962e-13	5.8591e-12	3.4596e-11	1.8227e-10	8.6266e-10	3.6944e-09	1.4426e-08	5.1775e-08	1.7221e-07	5.3519e-07	1.5659e-06	4.3426e-06	1.1475e-05	2.9001e-05	7.0281e-05	0.00016355	0.00036576	0.00078649	0.0016267	0.0032378	0.0062039	0.01145	0.020365	0.034931	0.057823	0.092454	0.14292	0.2138	0.30989	0.43567	0.59486	0.78984	1.0212	1.2873	1.5846	1.9072	2.2477	2.5976	2.948	3.2903	3.6167	3.9209	4.1981	4.4453	4.6612	4.846	5.0008	5.1279	5.2298	5.3091	5.3684	5.4096	5.4344	5.4434	5.4366	5.413	5.371	5.3083	5.222	5.1092	4.9667	4.792	4.5834	4.3404	4.0639	3.7569	3.4242	3.0726	2.7105	2.347	1.9922	1.6552	1.3442	1.0657	0.82373	0.62002	0.45394	0.32294	0.22302	0.14938	0.096961	0.060947	0.03707	0.021799	0.012382	0.0067851	0.0035813	0.0018172	0.00088432	0.00041154	0.00018256	7.6927e-05	3.0683e-05	1.1544e-05	4.0841e-06	1.3551e-06	4.2094e-07	1.2227e-07	3.3196e-08	8.4213e-09	1.9941e-09	4.3969e-10	8.9843e-11	1.6894e-11	2.8974e-12	4.4882e-13	6.2171e-14	7.6292e-15	8.2222e-16	7.722e-17	6.2755e-18	4.3849e-19	2.6187e-20	1.3292e-21	5.7034e-23	2.0584e-24	6.2169e-26	1.5639e-27	3.261e-29	5.6106e-31	7.9295e-33	9.1654e-35	8.6275e-37	6.5866e-39	4.0622e-41	2.0161e-43	8.0225e-46	2.5506e-48	6.4575e-51	1.2977e-53	2.0639e-56	2.5905e-59	2.5594e-62	1.9856e-65	1.207e-68	5.7377e-72	2.129e-75	6.1574e-79	1.3862e-82	2.4265e-86	3.3e-90	3.4848e-94	2.8565e-98	1.8174e-102	8.9764e-107	3.4433e-111	1.0266e-115	2.381e-120	4.3016e-125	6.0626e-130	6.6775e-135	5.7597e-140	3.8997e-145	2.078e-150	8.7394e-156	2.9103e-161	7.7e-167	1.6247e-172	2.7447e-178	3.7286e-184	4.0913e-190	3.6439e-196	2.6475e-202	1.5777e-208	7.7542e-215	3.1618e-221	1.0762e-227	3.0772e-234	7.4408e-241	1.532e-247	2.705e-254	4.126e-261	5.4784e-268	6.3843e-275	6.6178e-282	6.5913e-289	1.1517e-295	7.8613e-302	8.4576e-308	9.4031e-314	1.0461e-319	0	0	0	0	0	0	0	0	0	0
0	0	0	0	0	0	0	0	0	0	0	0	0	0	0	0	0	0	0	0	0	0	0	0	0	0	0	4.9407e-324	2.1959e-319	1.5667e-314	1.1787e-309	9.289e-305	7.6163e-300	6.4542e-295	5.6159e-290	4.9921e-285	4.6338e-280	6.4849e-275	3.972e-269	4.997e-263	6.2981e-257	7.2995e-251	7.6871e-245	7.3153e-239	6.2964e-233	5.0172e-227	4.0473e-221	3.9472e-215	4.984e-209	6.8363e-203	8.5562e-197	9.0548e-191	7.8852e-185	5.5872e-179	3.2004e-173	1.4749e-167	5.4456e-162	1.6049e-156	3.7625e-151	6.9958e-146	1.0289e-140	1.194e-135	1.0911e-130	7.8382e-126	4.4203e-121	1.9547e-116	6.7723e-112	1.8372e-107	3.9007e-103	6.4801e-99	8.4215e-95	8.561e-91	6.8073e-87	4.234e-83	2.0602e-79	7.8437e-76	2.3375e-72	5.4555e-69	9.9793e-66	1.4321e-62	1.6144e-59	1.4318e-56	1.0009e-53	5.5266e-51	2.4162e-48	8.3865e-46	2.3178e-43	5.1172e-41	9.0557e-39	1.2893e-36	1.4825e-34	1.3824e-32	1.0498e-30	6.5219e-29	3.3299e-27	1.404e-25	4.9124e-24	1.4336e-22	3.5076e-21	7.2333e-20	1.264e-18	1.882e-17	2.4009e-16	2.639e-15	2.5136e-14	2.0866e-13	1.5186e-12	9.7477e-12	5.553e-11	2.8255e-10	1.2928e-09	5.3573e-09	2.0259e-08	7.0464e-08	2.273e-07	6.8567e-07	1.9494e-06	5.2606e-06	1.355e-05	3.3455e-05	7.9382e-05	0.0001813	0.00039882	0.00084531	0.0017265	0.0033988	0.0064501	0.011804	0.02084	0.035511	0.058444	0.092966	0.14305	0.21314	0.30783	0.43141	0.58744	0.77813	1.004	1.2635	1.5531	1.8673	2.1988	2.5396	2.8811	3.2152	3.5342	3.8322	4.1044	4.348	4.5615	4.7449	4.8993	5.0266	5.1291	5.2094	5.2696	5.3117	5.337	5.3462	5.3391	5.3149	5.2718	5.2078	5.1201	5.0058	4.8621	4.6867	4.4781	4.236	3.9616	3.6579	3.33	2.9844	2.6295	2.2742	1.9281	1.6002	1.2983	1.0283	0.79422	0.59742	0.43718	0.31093	0.21471	0.14384	0.093409	0.058761	0.03578	0.021073	0.011992	0.0065864	0.0034861	0.0017748	0.00086713	0.00040554	0.00018103	7.6914e-05	3.1015e-05	1.1842e-05	4.2736e-06	1.4561e-06	4.6831e-07	1.4218e-07	4.0743e-08	1.1007e-08	2.7936e-09	6.6226e-10	1.4543e-10	2.9296e-11	5.358e-12	8.8078e-13	1.2894e-13	1.6669e-14	1.8887e-15	1.863e-16	1.5898e-17	1.1669e-18	7.3258e-20	3.9133e-21	1.7695e-22	6.7393e-24	2.1514e-25	5.7288e-27	1.2666e-28	2.3145e-30	3.48e-32	4.2867e-34	4.3076e-36	3.5168e-38	2.3235e-40	1.2375e-42	5.2942e-45	1.8128e-47	4.9518e-50	1.0756e-52	1.8524e-55	2.5223e-58	2.7083e-61	2.2877e-64	1.5169e-67	7.8793e-71	3.2008e-74	1.0153e-77	2.5113e-81	4.8388e-85	7.2568e-89	8.4656e-93	7.6795e-97	5.4167e-101	2.9712e-105	1.268e-109	4.2128e-114	1.0908e-118	2.2035e-123	3.4784e-128	4.2982e-133	4.166e-138	3.1745e-143	1.9067e-148	9.0529e-154	3.4083e-159	1.021e-164	2.4426e-170	4.6852e-176	7.2359e-182	9.0386e-188	9.1753e-194	7.6076e-200	5.1793e-206	2.9115e-212	1.3593e-218	5.3026e-225	1.7394e-231	4.8293e-238	1.1427e-244	2.3205e-251	4.0749e-258	6.2492e-265	8.675e-272	1.4611e-278	7.7545e-285	9.3813e-291	1.2532e-296	1.6592e-302	2.175e-308	2.8435e-314	3.7371e-320	0	0	0	0	0	0	0	0	0
0	0	0	0	0	0	0	0	0	0	0	0	0	0	0	0	0	0	0	0	0	0	0	0	0	0	1.9763e-322	1.0748e-317	6.2057e-313	3.7987e-308	2.4488e-303	1.6514e-298	1.1573e-293	8.3732e-289	6.2131e-284	4.698e-279	3.6012e-274	2.8407e-269	3.0339e-264	1.2156e-258	1.1429e-252	1.1113e-246	9.9032e-241	7.9663e-235	5.7455e-229	3.6995e-223	2.1323e-217	1.1291e-211	5.9962e-206	3.7304e-200	2.8552e-194	2.3036e-188	1.6773e-182	1.0255e-176	5.1244e-171	2.069e-165	6.7082e-160	1.7388e-154	3.5904e-149	5.8866e-144	7.6419e-139	7.8355e-134	6.3317e-129	4.025e-124	2.0096e-119	7.8714e-115	2.4164e-110	5.81e-106	1.0937e-101	1.6117e-97	1.8592e-93	1.6792e-89	1.1878e-85	6.5837e-82	2.8608e-78	9.7515e-75	2.6093e-71	5.4856e-68	9.0695e-65	1.1806e-61	1.2116e-58	9.8178e-56	6.2932e-53	3.1975e-50	1.2907e-47	4.1496e-45	1.0656e-42	2.1924e-40	3.6259e-38	4.837e-36	5.2246e-34	4.5873e-32	3.2877e-30	1.9316e-28	9.3456e-27	3.7409e-25	1.2449e-23	3.4609e-22	8.0796e-21	1.5921e-19	2.6624e-18	3.7985e-17	4.6493e-16	4.9093e-15	4.4975e-14	3.5954e-13	2.5229e-12	1.5633e-11	8.6067e-11	4.2372e-10	1.8779e-09	7.5455e-09	2.7693e-08	9.3568e-08	2.9345e-07	8.614e-07	2.3855e-06	6.2778e-06	1.5793e-05	3.8145e-05	8.8716e-05	0.00019899	0.00043076	0.0009001	0.0018155	0.0035348	0.0066435	0.012055	0.021123	0.035758	0.058508	0.092593	0.14184	0.2105	0.30296	0.42333	0.57495	0.75993	0.97875	1.23	1.5101	1.814	2.1349	2.465	2.7962	3.1207	3.4314	3.7223	3.989	4.2285	4.4393	4.6212	4.7751	4.9027	5.006	5.0873	5.1485	5.1914	5.2171	5.2263	5.2187	5.1935	5.1491	5.0833	4.9938	4.8778	4.7329	4.5568	4.3485	4.1079	3.8364	3.5373	3.2155	2.8777	2.5318	2.1868	1.8516	1.5348	1.2439	0.9843	0.75962	0.57105	0.41774	0.29707	0.20518	0.13753	0.089396	0.056314	0.034355	0.020282	0.011577	0.0063823	0.0033934	0.0017371	0.00085439	0.00040289	0.00018171	7.822e-05	3.2075e-05	1.2514e-05	4.6418e-06	1.6372e-06	5.4921e-07	1.7523e-07	5.3095e-08	1.5224e-08	4.1055e-09	1.0324e-09	2.3974e-10	5.0876e-11	9.7687e-12	1.6816e-12	2.5734e-13	3.4753e-14	4.1134e-15	4.2405e-16	3.7854e-17	2.9098e-18	1.9158e-19	1.0748e-20	5.1124e-22	2.0515e-23	6.9112e-25	1.9455e-26	4.5549e-28	8.8293e-30	1.4107e-31	1.8499e-33	1.9825e-35	1.7293e-37	1.2229e-39	6.985e-42	3.2105e-44	1.1833e-46	3.4858e-49	8.1812e-52	1.5253e-54	2.2527e-57	2.6286e-60	2.4177e-63	1.7489e-66	9.93e-70	4.4178e-73	1.5377e-76	4.1818e-80	8.8761e-84	1.4692e-87	1.8953e-91	1.9049e-95	1.4915e-99	9.0985e-104	4.3263e-108	1.6046e-112	4.6461e-117	1.0516e-121	1.8631e-126	2.5885e-131	2.8258e-136	2.4294e-141	1.6491e-146	8.8636e-152	3.7838e-157	1.2872e-162	3.5026e-168	7.6531e-174	1.3484e-179	1.9241e-185	2.2345e-191	2.1223e-197	1.6572e-203	1.0698e-209	5.7425e-216	2.5785e-222	9.7459e-229	3.1212e-235	8.5276e-242	2.0042e-248	4.1342e-255	8.6015e-262	3.7339e-268	4.772e-274	7.842e-280	1.2814e-285	2.0435e-291	3.1987e-297	4.9515e-303	7.6388e-309	1.1837e-314	1.8572e-320	0	0	0	0	0	0	0	0
0	0	0	0	0	0	0	0	0	0	0	0	0	0	0	0	0	0	0	0	0	0	0	0	0	1.6685e-320	7.2146e-316	3.3472e-311	1.655e-306	8.6631e-302	4.7693e-297	2.7433e-292	1.6379e-287	1.0084e-282	6.361e-278	4.0847e-273	2.6533e-268	1.7341e-263	1.1514e-258	9.4705e-254	2.4231e-248	1.6503e-242	1.222e-236	8.2888e-231	5.046e-225	2.7369e-219	1.3152e-213	5.5806e-208	2.0993e-202	7.1919e-197	2.4341e-191	9.2998e-186	4.174e-180	1.9319e-174	8.0217e-169	2.7859e-163	7.8687e-158	1.7864e-152	3.2399e-147	4.6751e-142	5.3503e-137	4.8432e-132	3.46e-127	1.9469e-122	8.6142e-118	2.9931e-113	8.1588e-109	1.7434e-104	2.9189e-100	3.8286e-96	3.9342e-92	3.1681e-88	2.0002e-84	9.9074e-81	3.853e-77	1.1776e-73	2.8315e-70	5.362e-67	8.0075e-64	9.4435e-61	8.8083e-58	6.509e-55	3.8177e-52	1.781e-49	6.6233e-47	1.9684e-44	4.688e-42	8.9733e-40	1.3848e-37	1.7289e-35	1.7525e-33	1.4478e-31	9.7878e-30	5.4372e-28	2.4928e-26	9.4756e-25	3.0002e-23	7.9512e-22	1.7726e-20	3.3411e-19	5.3524e-18	7.3264e-17	8.6155e-16	8.7521e-15	7.7238e-14	5.9556e-13	4.0358e-12	2.4179e-11	1.2887e-10	6.1492e-10	2.6445e-09	1.0323e-08	3.6845e-08	1.212e-07	3.7042e-07	1.0606e-06	2.8677e-06	7.3756e-06	1.8155e-05	4.2967e-05	9.8064e-05	0.0002162	0.00046078	0.00094948	0.0018915	0.0036423	0.0067792	0.012196	0.021209	0.035666	0.058019	0.091351	0.13931	0.20596	0.29544	0.41164	0.55774	0.73573	0.94607	1.1874	1.4566	1.7486	2.0572	2.3751	2.6947	3.0085	3.3098	3.5928	3.8533	4.0881	4.2958	4.476	4.6293	4.757	4.861	4.9431	5.0052	5.0488	5.0748	5.0837	5.0754	5.049	5.0029	4.9353	4.8438	4.7261	4.5799	4.4035	4.196	3.9576	3.6901	3.3968	3.0826	2.7542	2.4193	2.0864	1.7641	1.4604	1.1822	0.93456	0.72068	0.5415	0.39603	0.28165	0.19463	0.13058	0.084996	0.053648	0.032813	0.019436	0.01114	0.0061725	0.0033019	0.0017028	0.00084509	0.00040289	0.00018419	8.0627e-05	3.3759e-05	1.3515e-05	5.1736e-06	1.8946e-06	6.6367e-07	2.2212e-07	7.0791e-08	2.136e-08	6.0529e-09	1.5956e-09	3.873e-10	8.5712e-11	1.7134e-11	3.068e-12	4.883e-13	6.8606e-14	8.4551e-15	9.0857e-16	8.4652e-17	6.8014e-18	4.6878e-19	2.7576e-20	1.3775e-21	5.8152e-23	2.0645e-24	6.1353e-26	1.5191e-27	3.1199e-29	5.291e-31	7.3779e-33	8.4238e-35	7.8432e-37	5.9319e-39	3.6304e-41	1.7915e-43	7.1031e-46	2.2554e-48	5.7172e-51	1.1536e-53	1.8475e-56	2.3425e-59	2.346e-62	1.8515e-65	1.1494e-68	5.6023e-72	2.1407e-75	6.4044e-79	1.4985e-82	2.7398e-86	3.9121e-90	4.3609e-94	3.7947e-98	2.5779e-102	1.3678e-106	5.6717e-111	1.8398e-115	4.6738e-120	9.3125e-125	1.4578e-129	1.7965e-134	1.7468e-139	1.3434e-144	8.1953e-150	3.9778e-155	1.5413e-160	4.7846e-166	1.1946e-171	2.409e-177	3.9408e-183	5.2539e-189	5.7371e-195	5.1579e-201	3.8388e-207	2.3787e-213	1.2345e-219	5.4003e-226	2.0054e-232	6.4084e-239	1.893e-245	8.1436e-252	1.0299e-257	2.0977e-263	4.3696e-269	8.7872e-275	1.7086e-280	3.2346e-286	6.0065e-292	1.1024e-297	2.0152e-303	3.6975e-309	6.8632e-315	1.2994e-320	0	0	0	0	0	0	0
0	0	0	0	0	0	0	0	0	0	0	0	0	0	0	0	0	0	0	0	0	0	0	5.9288e-323	1.9422e-318	6.6691e-314	2.4693e-309	9.7937e-305	4.1336e-300	1.8445e-295	8.645e-291	4.2281e-286	2.1439e-281	1.1198e-276	5.9867e-272	3.255e-267	1.7886e-262	9.8715e-258	5.4424e-253	3.0139e-248	1.9257e-243	3.1075e-238	1.4754e-232	8.2043e-227	4.1951e-221	1.916e-215	7.7536e-210	2.7637e-204	8.6344e-199	2.3583e-193	5.6583e-188	1.224e-182	2.5656e-177	5.8308e-172	1.4926e-166	3.8779e-161	9.026e-156	1.7557e-150	2.7705e-145	3.5017e-140	3.5229e-135	2.8103e-130	1.7727e-125	8.8233e-121	3.4589e-116	1.0665e-111	2.5833e-107	4.9121e-103	7.3278e-99	8.5742e-95	7.8692e-91	5.6662e-87	3.2026e-83	1.4219e-79	4.9634e-76	1.3637e-72	2.9527e-69	5.0452e-66	6.8132e-63	7.2838e-60	6.1752e-57	4.1597e-54	2.2308e-51	9.5452e-49	3.2664e-46	8.9619e-44	1.9768e-41	3.5155e-39	5.0566e-37	5.9018e-35	5.6091e-33	4.357e-31	2.7769e-29	1.458e-27	6.3338e-26	2.2864e-24	6.8899e-23	1.7414e-21	3.7096e-20	6.6935e-19	1.0282e-17	1.3518e-16	1.5292e-15	1.4965e-14	1.274e-13	9.4888e-13	6.2192e-12	3.6084e-11	1.8648e-10	8.6391e-10	3.6116e-09	1.3721e-08	4.7723e-08	1.5315e-07	4.5711e-07	1.2795e-06	3.3852e-06	8.5275e-06	2.0578e-05	4.7796e-05	0.00010718	0.00023247	0.00048807	0.00099213	0.0019524	0.0037186	0.006854	0.012224	0.021098	0.035242	0.056995	0.089284	0.13556	0.19965	0.28547	0.39668	0.53627	0.70614	0.90675	1.1369	1.3936	1.6724	1.9674	2.2717	2.5784	2.8804	3.1712	3.4454	3.6988	3.9284	4.1325	4.3105	4.4627	4.5903	4.6947	4.7775	4.8403	4.8843	4.9104	4.9189	4.9097	4.8818	4.834	4.7644	4.6709	4.5516	4.4045	4.2282	4.0222	3.787	3.5246	3.2384	2.9335	2.6162	2.294	1.9751	1.6673	1.3784	1.1144	0.88014	0.67822	0.50938	0.37251	0.26501	0.18327	0.12311	0.080287	0.050804	0.031177	0.018544	0.010683	0.005956	0.00321	0.0016704	0.00083802	0.00040478	0.000188	8.3889e-05	3.5948e-05	1.4795e-05	5.8506e-06	2.2232e-06	8.1107e-07	2.8333e-07	9.43e-08	2.9688e-08	8.7622e-09	2.4008e-09	6.0471e-10	1.3871e-10	2.8725e-11	5.3289e-12	8.7923e-13	1.2818e-13	1.641e-14	1.8343e-15	1.7804e-16	1.4925e-17	1.075e-18	6.6199e-20	3.4676e-21	1.5377e-22	5.7448e-24	1.7998e-25	4.7066e-27	1.0228e-28	1.8389e-30	2.7236e-32	3.3095e-34	3.2859e-36	2.6553e-38	1.7399e-40	9.2111e-43	3.9262e-45	1.343e-47	3.6752e-50	8.022e-53	1.3928e-55	1.9187e-58	2.0921e-61	1.8016e-64	1.223e-67	6.5322e-71	2.7413e-74	9.0262e-78	2.3295e-81	4.7082e-85	7.4475e-89	9.2169e-93	8.9232e-97	6.7588e-101	4.0069e-105	1.8605e-109	6.7715e-114	1.9343e-118	4.3423e-123	7.6745e-128	1.0699e-132	1.1792e-137	1.03e-142	7.1495e-148	3.9561e-153	1.7508e-158	6.2188e-164	1.7798e-169	4.1208e-175	7.7529e-181	1.1907e-186	1.5002e-192	1.5586e-198	1.3425e-204	9.6414e-211	5.8107e-217	2.9692e-223	1.3414e-229	7.0111e-236	8.8083e-242	2.2022e-247	6.008e-253	1.5749e-258	3.9378e-264	9.4458e-270	2.1891e-275	4.9378e-281	1.092e-286	2.3857e-292	5.1879e-298	1.1316e-303	2.4955e-309	5.6164e-315	1.3236e-320	0	0	0	0	0	0
0	0	0	0	0	0	0	0	0	0	0	0	0	0	0	0	0	0	0	0	0	0	1.2653e-320	3.1435e-316	8.5179e-312	2.5009e-307	7.9045e-303	2.6721e-298	9.5987e-294	3.6403e-289	1.4482e-284	6.0047e-280	2.5783e-275	1.1392e-270	5.1466e-266	2.3626e-261	1.0952e-256	5.0948e-252	2.3642e-247	1.0884e-242	4.9826e-238	2.4909e-233	2.5417e-228	8.0351e-223	3.3009e-217	1.2606e-211	4.2852e-206	1.2843e-200	3.3735e-195	7.7258e-190	1.5359e-184	2.6454e-179	3.9678e-174	5.3059e-169	6.7239e-164	8.8648e-159	1.2655e-153	1.8112e-148	2.3283e-143	2.5081e-138	2.1918e-133	1.532e-128	8.5061e-124	3.7379e-119	1.2968e-114	3.5459e-110	7.6316e-106	1.2917e-101	1.7181e-97	1.7954e-93	1.474e-89	9.5082e-86	4.8218e-82	1.9236e-78	6.0427e-75	1.4964e-71	2.9251e-68	4.5203e-65	5.5316e-62	5.37e-59	4.1437e-56	2.5467e-53	1.2494e-50	4.9044e-48	1.5442e-45	3.9097e-43	7.9829e-41	1.3182e-38	1.766e-36	1.9257e-34	1.7149e-32	1.2518e-30	7.5187e-29	3.7304e-27	1.5352e-25	5.2631e-24	1.5098e-22	3.6407e-21	7.4147e-20	1.2816e-18	1.8895e-17	2.3884e-16	2.6018e-15	2.4558e-14	2.0195e-13	1.455e-12	9.2371e-12	5.1983e-11	2.6092e-10	1.1755e-09	4.7852e-09	1.7726e-08	6.019e-08	1.888e-07	5.5151e-07	1.5123e-06	3.9235e-06	9.7e-06	2.2991e-05	5.2489e-05	0.0001158	0.00024732	0.00051188	0.0010269	0.0019966	0.0037617	0.0068663	0.012141	0.020794	0.034502	0.055472	0.086456	0.1307	0.19177	0.27334	0.37885	0.51109	0.67188	0.8617	1.0795	1.3226	1.5869	1.867	2.1567	2.4493	2.7383	3.0176	3.2821	3.5276	3.7511	3.9509	4.1261	4.2768	4.4038	4.5082	4.5913	4.6544	4.6986	4.7245	4.7325	4.7221	4.6927	4.6431	4.5716	4.4765	4.3559	4.2084	4.0329	3.8292	3.5983	3.3423	3.0647	2.7705	2.466	2.1582	1.8548	1.5633	1.2904	1.042	0.82217	0.63312	0.47536	0.34765	0.24746	0.17131	0.11527	0.075349	0.047826	0.029465	0.017611	0.010207	0.0057315	0.0031158	0.0016381	0.0008319	0.00040769	0.00019265	8.7736e-05	3.851e-05	1.6296e-05	6.6499e-06	2.6154e-06	9.8957e-07	3.5877e-07	1.2388e-07	4.0409e-08	1.2339e-08	3.4935e-09	9.0849e-10	2.1508e-10	4.5984e-11	8.8124e-12	1.5035e-12	2.2691e-13	3.0115e-14	3.495e-15	3.5274e-16	3.0799e-17	2.3145e-18	1.4895e-19	8.169e-21	3.7993e-22	1.4915e-23	4.919e-25	1.3568e-26	3.1157e-28	5.9313e-30	9.3205e-32	1.204e-33	1.2734e-35	1.0985e-37	7.6995e-40	4.3695e-42	2.0009e-44	7.3686e-47	2.1756e-49	5.1353e-52	9.663e-55	1.4459e-57	1.7162e-60	1.6126e-63	1.1971e-66	7.0084e-70	3.231e-73	1.1714e-76	3.3365e-80	7.4592e-84	1.3081e-87	1.799e-91	1.9397e-95	1.6401e-99	1.0878e-103	5.6633e-108	2.3164e-112	7.4521e-117	1.8883e-121	3.7751e-126	5.9659e-131	7.4691e-136	7.4264e-141	5.8802e-146	3.7189e-151	1.8848e-156	7.6817e-162	2.5273e-167	6.7394e-173	1.4629e-178	2.597e-184	3.7883e-190	4.5645e-196	4.569e-202	3.8317e-208	2.7685e-214	2.0323e-220	2.7734e-226	8.4031e-232	3.0644e-237	1.0791e-242	3.5828e-248	1.1256e-253	3.3681e-259	9.6666e-265	2.6799e-270	7.2284e-276	1.9109e-281	4.988e-287	1.2953e-292	3.3721e-298	8.8803e-304	2.4167e-309	7.8631e-315	6.3315e-320	0	0	0	0	0
0	0	0	0	0	0	0	0	0	0	0	0	0	0	0	0	0	0	0	0	2.0751e-322	3.6538e-318	7.0892e-314	1.507e-309	3.4874e-305	8.7299e-301	2.3487e-296	6.7481e-292	2.0573e-287	6.6125e-283	2.2266e-278	7.8051e-274	2.8301e-269	1.0548e-264	4.0162e-260	1.5524e-255	6.0545e-251	2.368e-246	9.2323e-242	3.5667e-237	1.358e-232	5.0961e-228	2.0034e-223	1.3167e-218	2.6343e-213	7.8287e-208	2.2126e-202	5.5568e-197	1.2252e-191	2.3572e-186	3.937e-181	5.681e-176	7.0555e-171	7.531e-166	6.9419e-161	5.6385e-156	4.2401e-151	3.1847e-146	2.4928e-141	1.9345e-136	1.3562e-131	8.0167e-127	3.8562e-122	1.4848e-117	4.5411e-113	1.0988e-108	2.0987e-104	3.1599e-100	3.7473e-96	3.4985e-92	2.5709e-88	1.4873e-84	6.7768e-81	2.4334e-77	6.8926e-74	1.5417e-70	2.727e-67	3.8203e-64	4.2459e-61	3.751e-58	2.6395e-55	1.4827e-52	6.6639e-50	2.4024e-47	6.9653e-45	1.6284e-42	3.0788e-40	4.7215e-38	5.8914e-36	6.0009e-34	5.0069e-32	3.4341e-30	1.9435e-28	9.1112e-27	3.5524e-25	1.1568e-23	3.1598e-22	7.2721e-21	1.4167e-19	2.3474e-18	3.3241e-17	4.0433e-16	4.2461e-15	3.8701e-14	3.078e-13	2.1481e-12	1.3229e-11	7.2322e-11	3.5311e-10	1.5496e-09	6.1534e-09	2.2264e-08	7.3944e-08	2.2717e-07	6.5068e-07	1.7515e-06	4.465e-06	1.0855e-05	2.5314e-05	5.6897e-05	0.00012365	0.00026032	0.00053148	0.0010527	0.0020229	0.0037707	0.0068164	0.011949	0.020308	0.033469	0.053495	0.082952	0.12485	0.18252	0.25937	0.35859	0.4828	0.63374	0.81193	1.0165	1.245	1.4938	1.758	2.0319	2.3094	2.5844	2.8513	3.1051	3.3418	3.5584	3.753	3.9246	4.0731	4.1989	4.3027	4.3857	4.4487	4.4928	4.5183	4.5254	4.5139	4.483	4.4317	4.3586	4.2621	4.1408	3.9936	3.8199	3.6196	3.3942	3.1458	2.8783	2.5964	2.3061	2.0143	1.7278	1.4538	1.1983	0.96641	0.76178	0.58627	0.44009	0.32195	0.22934	0.15898	0.10719	0.07026	0.044756	0.027698	0.016647	0.0097128	0.0054981	0.0030174	0.0016041	0.00082542	0.00041078	0.00019762	9.189e-05	4.1305e-05	1.7953e-05	7.5436e-06	3.0607e-06	1.1957e-06	4.4755e-07	1.5941e-07	5.3585e-08	1.6844e-08	4.906e-09	1.3122e-09	3.196e-10	7.0341e-11	1.389e-11	2.4449e-12	3.812e-13	5.2346e-14	6.2953e-15	6.595e-16	5.9871e-17	4.6862e-18	3.1467e-19	1.8039e-20	8.7858e-22	3.6187e-23	1.2546e-24	3.6447e-26	8.8331e-28	1.7782e-29	2.961e-31	4.0616e-33	4.5712e-35	4.2051e-37	3.1501e-39	1.9148e-41	9.4126e-44	3.7295e-46	1.1875e-48	3.0294e-51	6.1756e-54	1.0034e-56	1.2964e-59	1.329e-62	1.0789e-65	6.9241e-69	3.5077e-72	1.4008e-75	4.4054e-79	1.0901e-82	2.1209e-86	3.2438e-90	3.8991e-94	3.6839e-98	2.7369e-102	1.5998e-106	7.364e-111	2.6724e-115	7.6562e-120	1.7345e-124	3.1133e-129	4.4369e-134	5.0328e-139	4.556e-144	3.3014e-149	1.921e-154	9.008e-160	3.4166e-165	1.0524e-170	2.644e-176	5.4425e-182	9.2267e-188	1.2977e-193	1.5462e-199	1.742e-205	2.9352e-211	1.0863e-216	5.3764e-222	2.6121e-227	1.1861e-232	5.0321e-238	2.0064e-243	7.5683e-249	2.719e-254	9.3685e-260	3.1175e-265	1.0091e-270	3.2001e-276	1.0016e-281	3.1176e-287	9.733e-293	3.1048e-298	1.1341e-303	8.7844e-309	2.2789e-313	9.2615e-318	4.2984e-322	0	0	0
0	0	0	0	0	0	0	0	0	0	0	0	0	0	0	0	0	0	9.8813e-324	1.0875e-319	1.48e-315	2.2305e-311	3.6995e-307	6.7102e-303	1.3226e-298	2.8152e-294	6.43e-290	1.566e-285	4.0409e-281	1.0979e-276	3.121e-272	9.2246e-268	2.8172e-263	8.8352e-259	2.8278e-254	9.1806e-250	3.0049e-245	9.8568e-241	3.221e-236	1.0424e-231	3.3217e-227	1.0366e-222	3.1633e-218	9.8055e-214	4.2819e-209	5.1679e-204	1.0796e-198	2.2354e-193	4.1201e-188	6.6437e-183	9.3123e-178	1.1288e-172	1.1779e-167	1.0535e-162	8.0504e-158	5.2493e-153	2.933e-148	1.4273e-143	6.2865e-139	2.6609e-134	1.1299e-129	4.6968e-125	1.7759e-120	5.7186e-116	1.5082e-111	3.195e-107	5.3865e-103	7.1944e-99	7.5952e-95	6.3307e-91	4.1639e-87	2.1611e-83	8.853e-80	2.8642e-76	7.3247e-73	1.4822e-69	2.3766e-66	3.0239e-63	3.0586e-60	2.4641e-57	1.5845e-54	8.1511e-52	3.3625e-49	1.1152e-46	2.9817e-44	6.445e-42	1.1295e-39	1.61e-37	1.8723e-35	1.7824e-33	1.3939e-31	8.9859e-30	4.7933e-28	2.1238e-26	7.8473e-25	2.428e-23	6.3175e-22	1.3884e-20	2.5888e-19	4.1146e-18	5.601e-17	6.5621e-16	6.6502e-15	5.8598e-14	4.5132e-13	3.055e-12	1.8277e-11	9.721e-11	4.6244e-10	1.9801e-09	7.6829e-09	2.7201e-08	8.8524e-08	2.6686e-07	7.5097e-07	1.9883e-06	4.9898e-06	1.195e-05	2.7468e-05	6.0872e-05	0.00013047	0.00027104	0.0005463	0.0010689	0.0020308	0.0037457	0.0067065	0.011655	0.019657	0.032176	0.051124	0.078871	0.1182	0.17216	0.24391	0.3364	0.45208	0.59259	0.7585	0.94909	1.1623	1.3948	1.6423	1.8996	2.1611	2.4212	2.6746	2.9167	3.1436	3.3524	3.541	3.7082	3.8536	3.9774	4.0801	4.1623	4.2248	4.2683	4.2931	4.2993	4.2866	4.2543	4.2016	4.1272	4.03	3.9088	3.7628	3.5918	3.3962	3.1775	2.9383	2.6822	2.414	2.1394	1.8647	1.5965	1.3409	1.1036	0.88894	0.7001	0.53853	0.40424	0.29585	0.21096	0.14648	0.098997	0.065095	0.041634	0.025895	0.015659	0.009203	0.0052546	0.002913	0.001567	0.00081739	0.00041324	0.00020243	9.6074e-05	4.4187e-05	1.9693e-05	8.499e-06	3.5451e-06	1.424e-06	5.4776e-07	2.0034e-07	6.9087e-08	2.2267e-08	6.6479e-09	1.823e-09	4.5552e-10	1.0295e-10	2.09e-11	3.787e-12	6.0877e-13	8.6322e-14	1.0738e-14	1.1655e-15	1.0981e-16	8.9369e-18	6.2509e-19	3.7396e-20	1.9044e-21	8.2171e-23	2.9903e-24	9.1369e-26	2.3338e-27	4.9619e-29	8.7447e-31	1.2723e-32	1.5221e-34	1.4916e-36	1.1931e-38	7.7613e-41	4.0923e-43	1.7434e-45	5.9822e-48	1.6487e-50	3.6395e-53	6.4192e-56	9.0249e-59	1.0092e-61	8.9601e-65	6.3043e-68	3.5101e-71	1.5445e-74	5.3652e-78	1.4701e-81	3.1755e-85	5.4053e-89	7.2493e-93	7.6614e-97	6.3825e-101	4.1939e-105	2.1755e-109	8.9188e-114	2.8936e-118	7.4415e-123	1.5198e-127	2.4704e-132	3.2035e-137	3.323e-142	2.7653e-147	1.8521e-152	1.0018e-157	4.3922e-163	1.5673e-168	4.573e-174	1.098e-179	2.2074e-185	4.0292e-191	9.4403e-197	4.4468e-202	3.0317e-207	2.0802e-212	1.3267e-217	7.8177e-223	4.2758e-228	2.1842e-233	1.0487e-238	4.7642e-244	2.0615e-249	8.5548e-255	3.4282e-260	1.336e-265	5.0997e-271	1.9207e-276	7.1975e-282	2.7283e-287	1.1472e-292	8.9869e-298	2.2986e-302	9.8721e-307	4.8907e-311	2.6708e-315	1.6102e-319	9.8813e-324	0
