6.4888e-224	4.2647e-225	3.2122e-226	2.7779e-227	2.7633e-228	3.167e-229	4.1888e-230	6.403e-231	1.1327e-231	2.3221e-232	5.5226e-233	1.5254e-233	4.898e-234	1.8298e-234	7.9586e-235	4.0329e-235	2.382e-235	1.6406e-235	1.3179e-235	1.2351e-235	1.3503e-235	1.7222e-235	2.5684e-235	4.9521e-235	5.3335e-234	4.4083e-232	4.9096e-230	6.1975e-228	9.0362e-226	2.81e-223	8.3237e-220	4.7827e-216	2.9173e-212	1.8282e-208	1.1695e-204	7.5949e-201	4.9795e-197	3.2783e-193	2.1556e-189	1.4081e-185	9.0898e-182	5.7689e-178	3.581e-174	2.1633e-170	1.2655e-166	7.1332e-163	3.856e-159	1.9896e-155	9.7536e-152	4.5224e-148	1.9746e-144	8.0833e-141	3.0897e-137	1.0981e-133	3.615e-130	1.098e-126	3.0656e-123	7.8393e-120	1.8297e-116	3.8851e-113	7.4802e-110	1.302e-106	2.0426e-103	2.8803e-100	3.641e-97	4.1156e-94	4.1499e-91	3.7245e-88	2.9691e-85	2.0982e-82	1.3121e-79	7.2485e-77	3.5322e-74	1.5163e-71	5.7264e-69	1.9007e-66	5.5397e-64	1.4165e-61	3.1758e-59	6.2396e-57	1.074e-54	1.619e-52	2.1373e-50	2.4711e-48	2.5027e-46	2.2209e-44	1.7276e-42	1.1788e-40	7.0592e-39	3.7135e-37	1.7176e-35	6.9923e-34	2.5083e-32	7.939e-31	2.2201e-29	5.4931e-28	1.2045e-26	2.3446e-25	4.0586e-24	6.2591e-23	8.6166e-22	1.061e-20	1.1711e-19	1.1611e-18	1.0364e-17	8.3476e-17	6.0817e-16	4.0176e-15	2.4125e-14	1.3202e-13	6.6008e-13	3.0237e-12	1.2725e-11	4.9334e-11	1.7673e-10	5.8675e-10	1.811e-09	5.2132e-09	1.4043e-08	3.5527e-08	8.4714e-08	1.9115e-07	4.0988e-07	8.3898e-07	1.6474e-06	3.1194e-06	5.7287e-06	1.0262e-05	1.8036e-05	3.1261e-05	5.3666e-05	9.1521e-05	0.00015528	0.00026214	0.00043991	0.00073263	0.0012086	0.0019714	0.0031741	0.0050376	0.0078723	0.012102	0.018291	0.027163	0.039621	0.056752	0.079819	0.11023	0.14948	0.1991	0.26053	0.33507	0.42371	0.52704	0.64522	0.77783	0.92392	1.082	1.25	1.4256	1.606	1.7883	1.9697	2.1473	2.3185	2.481	2.6328	2.7722	2.8981	3.0096	3.1061	3.1873	3.2531	3.3035	3.3385	3.3584	3.3632	3.3529	3.3277	3.2874	3.2322	3.162	3.0769	2.9771	2.8631	2.7356	2.5954	2.444	2.283	2.1144	1.9405	1.7637	1.5868	1.4125	1.2434	1.082	0.93024	0.78996	0.66237	0.54824	0.44783	0.36097	0.28709	0.22529	0.17445	0.13332	0.10058	0.074933	0.055146	0.04011	0.028845	0.020521	0.01445	0.010078	0.0069681	0.004782	0.0032625	0.0022176	0.0015054	0.0010235	0.00069847	0.00047921	0.00033054	0.00022886	0.00015856	0.00010946	7.495e-05	5.0664e-05	3.3666e-05	2.1909e-05	1.3917e-05	8.6038e-06	5.162e-06	2.9971e-06	1.6791e-06	9.0492e-07	4.6761e-07	2.3092e-07	1.0861e-07	4.849e-08	2.0481e-08	8.1574e-09	3.0544e-09	1.0719e-09	3.5158e-10	1.0747e-10	3.0533e-11	8.0416e-12	1.9583e-12	4.3986e-13	9.0898e-14	1.7241e-14	2.9945e-15	4.7514e-16	6.872e-17	9.0394e-18	1.0791e-18	1.1667e-19	1.14e-20	1.0048e-21	7.9744e-23	5.6876e-24	3.6397e-25	2.0864e-26	1.0698e-27	4.901e-29	2.0038e-30	7.3081e-32	2.3779e-33	6.9126e-35	1.802e-36	4.246e-38	9.1805e-40	1.8691e-41	3.7168e-43	7.4898e-45	1.5541e-46	3.2725e-48	6.777e-50	1.3413e-51	2.4911e-53	4.3006e-55	6.8735e-57	1.0157e-58	1.3877e-60	1.7542e-62
5.0221e-217	3.5488e-218	2.8634e-219	2.6429e-220	2.7953e-221	3.3937e-222	4.7364e-223	7.6103e-224	1.4097e-224	3.014e-225	7.4467e-226	2.1283e-226	7.0427e-227	2.7006e-227	1.2009e-227	6.1958e-228	3.711e-228	2.5813e-228	2.0857e-228	1.9579e-228	2.1355e-228	2.7062e-228	3.9885e-228	7.1709e-228	4.1656e-227	2.5045e-225	2.4516e-223	2.7293e-221	3.4138e-219	5.1914e-217	2.8413e-214	1.0291e-210	5.058e-207	2.5791e-203	1.3421e-199	7.0865e-196	3.7763e-192	2.0202e-188	1.0792e-184	5.7276e-181	3.0044e-177	1.5497e-173	7.8211e-170	3.8431e-166	1.8296e-162	8.3996e-159	3.701e-155	1.5579e-151	6.237e-148	2.3643e-144	8.4499e-141	2.8353e-137	8.8951e-134	2.5989e-130	7.0443e-127	1.7646e-123	4.0705e-120	8.6162e-117	1.6679e-113	2.9431e-110	4.719e-107	6.8551e-104	8.9958e-101	1.0635e-97	1.1298e-94	1.0758e-91	9.1615e-89	6.9617e-86	4.7109e-83	2.8335e-80	1.5121e-77	7.1484e-75	2.9891e-72	1.1041e-69	3.5985e-67	1.0337e-64	2.6147e-62	5.8198e-60	1.1391e-57	1.9596e-55	2.9619e-53	3.9326e-51	4.5864e-49	4.6985e-47	4.2288e-45	3.345e-43	2.3263e-41	1.4232e-39	7.6649e-38	3.6369e-36	1.5217e-34	5.6204e-33	1.8345e-31	5.2983e-30	1.3558e-28	3.0786e-27	6.2122e-26	1.1159e-24	1.7873e-23	2.5573e-22	3.275e-21	3.7613e-20	3.8819e-19	3.608e-18	3.0265e-17	2.2965e-16	1.58e-15	9.879e-15	5.6275e-14	2.9278e-13	1.3948e-12	6.1001e-12	2.4558e-11	9.1256e-11	3.1388e-10	1.0022e-09	2.9796e-09	8.2736e-09	2.1526e-08	5.2655e-08	1.2153e-07	2.6564e-07	5.5218e-07	1.0963e-06	2.0892e-06	3.8412e-06	6.8525e-06	1.1932e-05	2.04e-05	3.4438e-05	5.7669e-05	9.6123e-05	0.00015976	0.00026481	0.00043734	0.00071834	0.001171	0.0018903	0.0030163	0.0047497	0.0073711	0.011262	0.016929	0.025018	0.036336	0.05185	0.072683	0.10009	0.1354	0.17999	0.23517	0.30209	0.38168	0.47454	0.58086	0.70036	0.83226	0.97531	1.1278	1.2876	1.4525	1.6197	1.7868	1.9511	2.1102	2.2619	2.4043	2.5358	2.6552	2.7613	2.8537	2.9317	2.9952	3.0441	3.0783	3.0978	3.1027	3.0931	3.069	3.0305	2.9776	2.9105	2.8294	2.7347	2.6269	2.5067	2.3753	2.2339	2.0842	1.9281	1.7677	1.6053	1.4433	1.2842	1.1302	0.9835	0.84586	0.71876	0.60326	0.49997	0.4091	0.33043	0.26345	0.20732	0.16106	0.12353	0.093572	0.070014	0.05177	0.037843	0.02736	0.019574	0.013864	0.0097301	0.0067721	0.0046804	0.0032177	0.0022055	0.0015111	0.0010379	0.00071639	0.00049771	0.00034809	0.00024469	0.00017236	0.00012115	8.4575e-05	5.8373e-05	3.9661e-05	2.6427e-05	1.7209e-05	1.0919e-05	6.7292e-06	4.0168e-06	2.3153e-06	1.2847e-06	6.8398e-07	3.483e-07	1.6909e-07	7.8001e-08	3.4084e-08	1.4064e-08	5.4641e-09	1.993e-09	6.8053e-10	2.1697e-10	6.4414e-11	1.7763e-11	4.5381e-12	1.0716e-12	2.333e-13	4.6722e-14	8.5866e-15	1.445e-15	2.2215e-16	3.1136e-17	3.97e-18	4.5956e-19	4.8202e-20	4.5723e-21	3.9153e-22	3.0216e-23	2.0982e-24	1.3092e-25	7.3316e-27	3.6822e-28	1.6583e-29	6.7016e-31	2.4365e-32	8.0135e-34	2.409e-35	6.739e-37	1.8015e-38	4.7481e-40	1.2629e-41	3.3971e-43	9.0722e-45	2.3449e-46	5.7443e-48	1.3164e-49	2.8028e-51	5.5273e-53	1.0086e-54	1.7033e-56	2.6632e-58	3.8588e-60
3.0728e-210	2.3343e-211	2.0175e-212	1.9872e-213	2.2347e-214	2.8736e-215	4.2318e-216	7.147e-217	1.3861e-217	3.0908e-218	7.9327e-219	2.3458e-219	7.9999e-220	3.1487e-220	1.4313e-220	7.5191e-221	4.5668e-221	3.2081e-221	2.6072e-221	2.4518e-221	2.6679e-221	3.359e-221	4.8959e-221	8.4507e-221	3.053e-220	1.1666e-218	9.9288e-217	9.7511e-215	1.0706e-212	1.3198e-210	2.2476e-208	2.1392e-205	7.6346e-202	3.1521e-198	1.3338e-194	5.7249e-191	2.4791e-187	1.0775e-183	4.6763e-180	2.0162e-176	8.5932e-173	3.6024e-169	1.4782e-165	5.9084e-162	2.2896e-158	8.5616e-155	3.0753e-151	1.0563e-147	3.4544e-144	1.0709e-140	3.1339e-137	8.622e-134	2.2212e-130	5.3371e-127	1.1916e-123	2.4632e-120	4.6973e-117	8.2353e-114	1.323e-110	1.9414e-107	2.5943e-104	3.1478e-101	3.4581e-98	3.4306e-95	3.0655e-92	2.4614e-89	1.7719e-86	1.1412e-83	6.5623e-81	3.3631e-78	1.5334e-75	6.2108e-73	2.2313e-70	7.1014e-68	1.9999e-65	4.9783e-63	1.0945e-60	2.1235e-58	3.6337e-56	5.4815e-54	7.287e-52	8.5353e-50	8.8078e-48	8.0079e-46	6.4158e-44	4.5311e-42	2.822e-40	1.5507e-38	7.5243e-37	3.226e-35	1.2233e-33	4.1066e-32	1.2219e-30	3.2262e-29	7.5692e-28	1.5802e-26	2.94e-25	4.8827e-24	7.2506e-23	9.6442e-22	1.1512e-20	1.2355e-19	1.1947e-18	1.043e-17	8.2387e-17	5.9009e-16	3.8412e-15	2.2778e-14	1.2333e-13	6.1128e-13	2.7801e-12	1.1632e-11	4.4887e-11	1.6019e-10	5.3013e-10	1.6314e-09	4.6819e-09	1.2568e-08	3.1653e-08	7.5042e-08	1.6803e-07	3.5669e-07	7.2056e-07	1.3913e-06	2.5796e-06	4.6165e-06	8.0197e-06	1.3605e-05	2.2675e-05	3.7349e-05	6.1103e-05	9.9662e-05	0.0001624	0.00026448	0.00043005	0.00069686	0.0011227	0.0017938	0.0028368	0.0044319	0.0068303	0.010372	0.015505	0.022803	0.032977	0.046879	0.065501	0.089945	0.1214	0.16106	0.21011	0.2696	0.34038	0.42302	0.51775	0.6244	0.74236	0.87062	1.0077	1.1519	1.3011	1.4531	1.6055	1.7561	1.9026	2.0429	2.1753	2.2981	2.4101	2.5102	2.5976	2.6719	2.7325	2.7794	2.8124	2.8314	2.8364	2.8275	2.8048	2.7684	2.7183	2.6549	2.5785	2.4895	2.3885	2.2764	2.1544	2.0236	1.8857	1.7425	1.5958	1.4479	1.3009	1.1569	1.0179	0.88577	0.76202	0.64791	0.54429	0.45168	0.37019	0.29961	0.23944	0.18896	0.14727	0.11336	0.086205	0.064782	0.048125	0.035355	0.025698	0.018488	0.013174	0.0093047	0.0065204	0.0045399	0.0031465	0.002176	0.0015058	0.0010456	0.00073046	0.0005142	0.00036478	0.00026037	0.00018641	0.0001333	9.4767e-05	6.6674e-05	4.6223e-05	3.1455e-05	2.0939e-05	1.3591e-05	8.5764e-06	5.2457e-06	3.1006e-06	1.7657e-06	9.6572e-07	5.0569e-07	2.5273e-07	1.2017e-07	5.4205e-08	2.3122e-08	9.3016e-09	3.5188e-09	1.2484e-09	4.1431e-10	1.2828e-10	3.6964e-11	9.8884e-12	2.4499e-12	5.6082e-13	1.1835e-13	2.297e-14	4.0914e-15	6.6736e-16	9.9475e-17	1.3522e-17	1.673e-18	1.8804e-19	1.9166e-20	1.7686e-21	1.4753e-22	1.1111e-23	7.5474e-25	4.6223e-26	2.5533e-27	1.2743e-28	5.7682e-30	2.386e-31	9.1337e-33	3.2982e-34	1.151e-35	3.9712e-37	1.3692e-38	4.6881e-40	1.5659e-41	5.0034e-43	1.5067e-44	4.2361e-46	1.1065e-47	2.6793e-49	6.0094e-51	1.2485e-52	2.4041e-54	4.2935e-56	7.1181e-58
1.4779e-203	1.2068e-204	1.1171e-205	1.1741e-206	1.4036e-207	1.9115e-208	2.9699e-209	5.2716e-210	1.0704e-210	2.489e-211	6.6355e-212	2.0302e-212	7.1346e-213	2.8822e-213	1.3394e-213	7.1636e-214	4.4119e-214	3.13e-214	2.5585e-214	2.4101e-214	2.6163e-214	3.273e-214	4.7192e-214	7.9291e-214	2.0974e-213	4.4938e-212	3.2448e-210	2.8092e-208	2.7139e-206	2.912e-204	3.5412e-202	7.4863e-200	1.0481e-196	3.3325e-193	1.1437e-189	3.9902e-186	1.4042e-182	4.9585e-179	1.7483e-175	6.1245e-172	2.1211e-168	7.228e-165	2.4118e-161	7.8435e-158	2.4746e-154	7.5395e-151	2.2085e-147	6.1921e-144	1.6547e-140	4.1969e-137	1.0061e-133	2.2708e-130	4.8062e-127	9.5031e-124	1.7489e-120	2.9852e-117	4.7093e-114	6.8435e-111	9.1313e-108	1.1152e-104	1.2431e-101	1.2609e-98	1.1607e-95	9.6716e-93	7.2768e-90	4.9321e-87	3.0048e-84	1.642e-81	8.0334e-79	3.5122e-76	1.3699e-73	4.7599e-71	1.4712e-68	4.0397e-66	9.8438e-64	2.1266e-61	4.0693e-59	6.8925e-57	1.0327e-54	1.3683e-52	1.6024e-50	1.6584e-48	1.5167e-46	1.2259e-44	8.7577e-43	5.5318e-41	3.0907e-39	1.5283e-37	6.6926e-36	2.5975e-34	8.9425e-33	2.7337e-31	7.4286e-30	1.7966e-28	3.8718e-27	7.4463e-26	1.2798e-24	1.969e-23	2.716e-22	3.3649e-21	3.7511e-20	3.7697e-19	3.422e-18	2.8116e-17	2.0954e-16	1.4194e-15	8.7596e-15	4.9359e-14	2.5454e-13	1.2042e-12	5.2385e-12	2.1009e-11	7.7867e-11	2.6741e-10	8.5315e-10	2.5354e-09	7.0384e-09	1.8303e-08	4.472e-08	1.0298e-07	2.2422e-07	4.6326e-07	9.1164e-07	1.7158e-06	3.1026e-06	5.4177e-06	9.1858e-06	1.5215e-05	2.477e-05	3.988e-05	6.3837e-05	0.00010201	0.00016312	0.00026117	0.00041831	0.00066889	0.0010651	0.0016847	0.0026405	0.0040928	0.0062638	0.009453	0.014054	0.020568	0.029616	0.041944	0.058413	0.079989	0.10771	0.14263	0.18579	0.23813	0.30044	0.37324	0.45681	0.55105	0.65552	0.76938	0.89145	1.0202	1.154	1.2907	1.4284	1.5651	1.6985	1.827	1.9488	2.0623	2.1662	2.2596	2.3415	2.4113	2.4686	2.5131	2.5445	2.5628	2.5679	2.5598	2.5387	2.5047	2.4579	2.3987	2.3274	2.2447	2.1512	2.0478	1.9356	1.8158	1.69	1.5599	1.4272	1.2937	1.1616	1.0324	0.90814	0.79023	0.68001	0.57851	0.48643	0.40416	0.33178	0.26906	0.21554	0.17057	0.13335	0.10301	0.078646	0.059356	0.044301	0.032709	0.023902	0.017295	0.012399	0.008815	0.0062215	0.0043658	0.0030521	0.0021311	0.0014904	0.0010471	0.00074086	0.0005287	0.00038051	0.00027573	0.00020051	0.00014572	0.00010534	7.5403e-05	5.3218e-05	3.6893e-05	2.5036e-05	1.6579e-05	1.0681e-05	6.675e-06	4.0349e-06	2.352e-06	1.3181e-06	7.081e-07	3.635e-07	1.7779e-07	8.2603e-08	3.6353e-08	1.5112e-08	5.918e-09	2.1773e-09	7.5069e-10	2.4194e-10	7.2708e-11	2.0326e-11	5.2737e-12	1.2669e-12	2.8118e-13	5.7528e-14	1.0827e-14	1.8703e-15	2.9599e-16	4.2827e-17	5.6553e-18	6.8036e-19	7.445e-20	7.4005e-21	6.6751e-22	5.4599e-23	4.0503e-24	2.7281e-25	1.6732e-26	9.3953e-28	4.8746e-29	2.3695e-30	1.0988e-31	4.9546e-33	2.2011e-34	9.6501e-36	4.1353e-37	1.706e-38	6.6787e-40	2.4551e-41	8.419e-43	2.6834e-44	7.936e-46	2.1766e-47	5.5366e-49	1.3067e-50	2.8633e-52	5.8295e-54	1.1037e-55
5.5583e-197	4.8777e-198	4.8345e-199	5.421e-200	6.8882e-201	9.9333e-202	1.628e-202	3.0367e-203	6.4542e-204	1.5649e-204	4.3332e-205	1.3716e-205	4.9667e-206	2.0592e-206	9.7816e-207	5.3263e-207	3.3262e-207	2.383e-207	1.9592e-207	1.8487e-207	2.0022e-207	2.4887e-207	3.5504e-207	5.8445e-207	1.2893e-206	1.4642e-205	8.5248e-204	6.4915e-202	5.5205e-200	5.1951e-198	5.4052e-196	6.5532e-194	1.8628e-191	3.1157e-188	8.4452e-185	2.3915e-181	6.8396e-178	1.9627e-174	5.6235e-171	1.6009e-167	4.5069e-164	1.2488e-160	3.3896e-157	8.9722e-154	2.3055e-150	5.7258e-147	1.3684e-143	3.1334e-140	6.8461e-137	1.4214e-133	2.7933e-130	5.1751e-127	9.0049e-124	1.4662e-120	2.2259e-117	3.1396e-114	4.1008e-111	4.9437e-108	5.4836e-105	5.5794e-102	5.1924e-99	4.4075e-96	3.4033e-93	2.3845e-90	1.5123e-87	8.6624e-85	4.4715e-82	2.0759e-79	8.6517e-77	3.2311e-74	1.0796e-71	3.2222e-69	8.5797e-67	2.0355e-64	4.2982e-62	8.0702e-60	1.3462e-57	1.9937e-55	2.6198e-53	3.0533e-51	3.1551e-49	2.8901e-47	2.3466e-45	1.6889e-43	1.0778e-41	6.0996e-40	3.0628e-38	1.3652e-36	5.4055e-35	1.9026e-33	5.9583e-32	1.6618e-30	4.1319e-29	9.1701e-28	1.8189e-26	3.2286e-25	5.1361e-24	7.3342e-23	9.4158e-22	1.0887e-20	1.1356e-19	1.0707e-18	9.1422e-18	7.0833e-17	4.9902e-16	3.2034e-15	1.8778e-14	1.0074e-13	4.9574e-13	2.2428e-12	9.3511e-12	3.6016e-11	1.2846e-10	4.2533e-10	1.3107e-09	3.7691e-09	1.0141e-08	2.5598e-08	6.0797e-08	1.3626e-07	2.8911e-07	5.8265e-07	1.1194e-06	2.0582e-06	3.6379e-06	6.2116e-06	1.0302e-05	1.6695e-05	2.6601e-05	4.1935e-05	6.5773e-05	0.00010309	0.00016191	0.00025503	0.00040251	0.0006353	0.0010001	0.0015659	0.0024326	0.003741	0.0056854	0.0085267	0.012606	0.018359	0.026321	0.037136	0.051547	0.070389	0.094559	0.12498	0.16256	0.20814	0.26241	0.32589	0.39886	0.48128	0.57284	0.67289	0.78045	0.8943	1.0129	1.1347	1.2578	1.3804	1.5008	1.6171	1.7279	1.8315	1.9269	2.013	2.0888	2.1537	2.2071	2.2488	2.2784	2.2958	2.3009	2.2937	2.2743	2.243	2.1998	2.1452	2.0796	2.0037	1.9181	1.8237	1.7217	1.6133	1.4998	1.3827	1.2638	1.1447	1.027	0.91241	0.80235	0.69817	0.60095	0.51154	0.43051	0.35815	0.29448	0.23928	0.19214	0.15247	0.11958	0.092701	0.071052	0.053856	0.040384	0.029967	0.022017	0.016024	0.011561	0.0082753	0.0058846	0.0041639	0.002938	0.0020726	0.0014661	0.0010429	0.0007478	0.00054119	0.00039518	0.0002906	0.00021448	0.00015821	0.00011611	8.4401e-05	6.0513e-05	4.2637e-05	2.9424e-05	1.9828e-05	1.3009e-05	8.2872e-06	5.1107e-06	3.0426e-06	1.7435e-06	9.588e-07	5.0454e-07	2.5332e-07	1.21e-07	5.4834e-08	2.3511e-08	9.5124e-09	3.6224e-09	1.2951e-09	4.3365e-10	1.3566e-10	3.9562e-11	1.073e-11	2.7003e-12	6.2923e-13	1.3548e-13	2.6896e-14	4.9139e-15	8.2461e-16	1.2688e-16	1.787e-17	2.3008e-18	2.7046e-19	2.9007e-20	2.8381e-21	2.535e-22	2.0714e-23	1.5548e-24	1.0792e-25	6.9987e-27	4.2971e-28	2.5354e-29	1.4554e-30	8.1715e-32	4.4721e-33	2.3622e-34	1.1901e-35	5.6605e-37	2.5228e-38	1.0487e-39	4.0551e-41	1.4568e-42	4.8599e-44	1.5057e-45	4.3338e-47	1.1595e-48	2.8853e-50	6.6835e-52	1.4424e-53
1.6264e-190	1.5334e-191	1.627e-192	1.9459e-193	2.6274e-194	4.0112e-195	6.9336e-196	1.3588e-196	3.0226e-197	7.6408e-198	2.1971e-198	7.1935e-199	2.6839e-199	1.1419e-199	5.5443e-200	3.0734e-200	1.946e-200	1.408e-200	1.1642e-200	1.1005e-200	1.189e-200	1.4685e-200	2.0731e-200	3.3538e-200	6.6863e-200	4.1908e-199	1.7981e-197	1.1974e-195	8.9652e-194	7.4083e-192	6.733e-190	6.7497e-188	8.3343e-186	3.2009e-183	5.4353e-180	1.2299e-176	2.8566e-173	6.6635e-170	1.552e-166	3.5921e-163	8.2233e-160	1.8535e-156	4.0947e-153	8.8265e-150	1.8483e-146	3.7439e-143	7.3043e-140	1.3669e-136	2.4435e-133	4.1561e-130	6.6998e-127	1.0197e-123	1.46e-120	1.9592e-117	2.4556e-114	2.8649e-111	3.1011e-108	3.1045e-105	2.8656e-102	2.4315e-99	1.8914e-96	1.345e-93	8.722e-91	5.1446e-88	2.7537e-85	1.3347e-82	5.845e-80	2.3084e-77	8.2062e-75	2.6215e-72	7.5134e-70	1.9292e-67	4.432e-65	9.0986e-63	1.6674e-60	2.7253e-58	3.9692e-56	5.148e-54	5.9425e-52	6.1026e-50	5.5736e-48	4.5264e-46	3.2684e-44	2.0985e-42	1.1983e-40	6.0871e-39	2.7519e-37	1.1078e-35	3.9732e-34	1.2706e-32	3.6263e-31	9.2443e-30	2.1072e-28	4.2999e-27	7.8642e-26	1.2909e-24	1.9045e-23	2.529e-22	3.0277e-21	3.2733e-20	3.2012e-19	2.8372e-18	2.2831e-17	1.6713e-16	1.1152e-15	6.7972e-15	3.792e-14	1.9406e-13	9.1298e-13	3.9577e-12	1.5844e-11	5.8718e-11	2.0191e-10	6.4577e-10	1.9258e-09	5.3687e-09	1.4026e-08	3.4433e-08	7.965e-08	1.741e-07	3.6067e-07	7.1043e-07	1.3352e-06	2.4034e-06	4.1612e-06	6.9626e-06	1.1319e-05	1.7982e-05	2.8094e-05	4.3437e-05	6.685e-05	0.00010289	0.00015885	0.00024629	0.0003832	0.00059715	0.00092944	0.0014408	0.0022184	0.0033847	0.0051078	0.0076125	0.011192	0.016218	0.02315	0.032535	0.045011	0.06129	0.08214	0.10836	0.14073	0.17999	0.22677	0.28153	0.34455	0.41586	0.49526	0.58222	0.67599	0.77554	0.87963	0.98685	1.0957	1.2045	1.3118	1.4159	1.5154	1.609	1.6955	1.7738	1.8431	1.9027	1.9519	1.9904	2.0179	2.0342	2.0392	2.033	2.0155	1.987	1.9477	1.898	1.8385	1.7697	1.6923	1.6073	1.5156	1.4185	1.3172	1.2132	1.1078	1.0026	0.89893	0.79826	0.70181	0.6107	0.52583	0.44787	0.37727	0.31426	0.25881	0.21072	0.16961	0.13496	0.10618	0.082609	0.063566	0.048391	0.036457	0.027192	0.020088	0.014708	0.010681	0.0077004	0.0055195	0.0039402	0.0028079	0.0020027	0.0014339	0.0010335	0.0007514	0.00055161	0.00040862	0.00030479	0.00022812	0.0001706	0.00012691	9.3515e-05	6.7981e-05	4.8583e-05	3.4025e-05	2.3283e-05	1.5525e-05	1.0059e-05	6.3163e-06	3.8327e-06	2.2411e-06	1.2593e-06	6.78e-07	3.4879e-07	1.7096e-07	7.9632e-08	3.5152e-08	1.4668e-08	5.771e-09	2.1357e-09	7.4168e-10	2.4113e-10	7.3229e-11	2.0727e-11	5.4562e-12	1.3331e-12	3.0167e-13	6.3115e-14	1.2186e-14	2.1675e-15	3.5469e-16	5.3331e-17	7.3621e-18	9.3276e-19	1.0851e-19	1.1609e-20	1.1455e-21	1.0479e-22	8.9532e-24	7.2148e-25	5.5453e-26	4.1068e-27	2.9489e-28	2.0535e-29	1.3793e-30	8.8612e-32	5.3969e-33	3.0935e-34	1.6601e-35	8.313e-37	3.8767e-38	1.682e-39	6.7871e-41	2.5472e-42	8.8939e-44	2.8903e-45	8.7472e-47	2.4669e-48	6.4883e-50	1.5928e-51
3.6854e-184	3.7319e-185	4.2374e-186	5.4037e-187	7.7512e-188	1.2525e-188	2.2828e-189	4.6992e-190	1.0938e-190	2.8822e-191	8.6053e-192	2.9139e-192	1.12e-192	4.8896e-193	2.4263e-193	1.3691e-193	8.7892e-194	6.4213e-194	5.3403e-194	5.0563e-194	5.4505e-194	6.689e-194	9.3447e-194	1.488e-193	2.7973e-193	1.0935e-192	3.0566e-191	1.7557e-189	1.157e-187	8.4002e-186	6.687e-184	5.8222e-182	5.5988e-180	7.2246e-178	3.5047e-175	5.4677e-172	1.0209e-168	1.9352e-165	3.6658e-162	6.9018e-159	1.2856e-155	2.3587e-152	4.2436e-149	7.4543e-146	1.273e-142	2.1046e-139	3.3547e-136	5.1344e-133	7.5157e-130	1.0481e-126	1.3872e-123	1.7361e-120	2.0472e-117	2.2664e-114	2.3476e-111	2.2679e-108	2.0366e-105	1.6949e-102	1.3034e-99	9.2339e-97	6.0108e-94	3.5855e-91	1.955e-88	9.7201e-86	4.3969e-83	1.8056e-80	6.7179e-78	2.2601e-75	6.8635e-73	1.8782e-70	4.6246e-68	1.0231e-65	2.0309e-63	3.6135e-61	5.7564e-59	8.203e-57	1.0448e-54	1.1888e-52	1.2075e-50	1.0945e-48	8.8503e-47	6.3834e-45	4.1064e-43	2.3562e-41	1.2061e-39	5.5093e-38	2.2466e-36	8.1822e-35	2.6633e-33	7.7533e-32	2.0203e-30	4.7165e-29	9.8747e-28	1.8562e-26	3.1364e-25	4.7701e-24	6.5387e-23	8.0905e-22	9.0497e-21	9.166e-20	8.4205e-19	7.0289e-18	5.3408e-17	3.701e-16	2.3435e-15	1.3587e-14	7.2278e-14	3.535e-13	1.593e-12	6.629e-12	2.553e-11	9.12e-11	3.029e-10	9.3752e-10	2.7106e-09	7.3387e-09	1.8652e-08	4.4614e-08	1.007e-07	2.1505e-07	4.3582e-07	8.4068e-07	1.5487e-06	2.7345e-06	4.6469e-06	7.6345e-06	1.2189e-05	1.9021e-05	2.919e-05	4.4335e-05	6.7042e-05	0.00010144	0.00015407	0.00023527	0.000361	0.00055553	0.00085503	0.0013123	0.0020027	0.0030315	0.0045425	0.0067272	0.0098345	0.014179	0.020149	0.028207	0.03889	0.052802	0.070593	0.092944	0.12053	0.15398	0.19384	0.24056	0.29439	0.35542	0.42349	0.49824	0.57906	0.66512	0.7554	0.84873	0.94381	1.0393	1.1337	1.2258	1.3141	1.3976	1.4749	1.5453	1.6078	1.6617	1.7064	1.7416	1.7668	1.7819	1.7867	1.7814	1.7658	1.7403	1.7051	1.6605	1.6072	1.5456	1.4766	1.401	1.3197	1.2338	1.1446	1.0531	0.96084	0.86893	0.77866	0.69119	0.60759	0.52876	0.45544	0.38818	0.32731	0.273	0.22521	0.18373	0.14824	0.11829	0.093366	0.072898	0.056317	0.04306	0.032596	0.024439	0.018157	0.013377	0.0097803	0.0071048	0.0051357	0.0037011	0.0026654	0.0019236	0.001395	0.0010193	0.00075169	0.00055981	0.0004206	0.00031804	0.00024118	0.00018265	0.00013756	0.0001026	7.5501e-05	5.4637e-05	3.8766e-05	2.6892e-05	1.8191e-05	1.1968e-05	7.6375e-06	4.7154e-06	2.8088e-06	1.6098e-06	8.8523e-07	4.658e-07	2.339e-07	1.1178e-07	5.0717e-08	2.179e-08	8.8432e-09	3.3823e-09	1.2164e-09	4.1038e-10	1.2961e-10	3.8241e-11	1.0519e-11	2.6923e-12	6.4007e-13	1.4111e-13	2.8802e-14	5.4368e-15	9.4821e-16	1.5272e-16	2.2722e-17	3.1258e-18	3.9852e-19	4.726e-20	5.2418e-21	5.4763e-22	5.4337e-23	5.1609e-24	4.7191e-25	4.162e-26	3.5322e-27	2.869e-28	2.2153e-29	1.6158e-30	1.1076e-31	7.1077e-33	4.2601e-34	2.3812e-35	1.2403e-36	6.0186e-38	2.7207e-39	1.146e-40	4.4991e-42	1.6472e-43	5.6271e-45	1.7948e-46	5.3486e-48	1.4905e-49
6.4389e-178	6.9998e-179	8.5023e-180	1.1557e-180	1.7605e-181	3.0099e-182	5.7829e-183	1.2501e-183	3.0442e-184	8.3591e-185	2.5909e-185	9.072e-186	3.5915e-186	1.6087e-186	8.1573e-187	4.6852e-187	3.0492e-187	2.2495e-187	1.8815e-187	1.7844e-187	1.9191e-187	2.3403e-187	3.2358e-187	5.0752e-187	9.1874e-187	2.6092e-186	4.2452e-185	2.0397e-183	1.1816e-181	7.541e-180	5.2628e-178	4.0035e-176	3.3144e-174	3.0493e-172	4.1826e-170	2.3145e-167	3.1382e-164	4.7987e-161	7.3933e-158	1.133e-154	1.7186e-151	2.5685e-148	3.7664e-145	5.3959e-142	7.5211e-139	1.0158e-135	1.324e-132	1.6589e-129	1.9903e-126	2.278e-123	2.478e-120	2.5528e-117	2.4817e-114	2.2691e-111	1.9448e-108	1.5574e-105	1.1617e-102	8.0468e-100	5.1614e-97	3.057e-94	1.6674e-91	8.3541e-89	3.8353e-86	1.6096e-83	6.1619e-81	2.1471e-78	6.7965e-76	1.9508e-73	5.0681e-71	1.1899e-68	2.5209e-66	4.8125e-64	8.2684e-62	1.2771e-59	1.7714e-57	2.2045e-55	2.4599e-53	2.4593e-51	2.2019e-49	1.7647e-47	1.2657e-45	8.122e-44	4.6632e-42	2.3955e-40	1.1012e-38	4.5315e-37	1.6698e-35	5.5128e-34	1.6315e-32	4.3317e-31	1.0325e-29	2.2116e-28	4.261e-27	7.3924e-26	1.1562e-24	1.6324e-23	2.0831e-22	2.4061e-21	2.5194e-20	2.3952e-19	2.071e-18	1.6312e-17	1.1726e-16	7.7064e-16	4.6395e-15	2.5636e-14	1.3027e-13	6.1004e-13	2.6381e-12	1.0557e-11	3.9184e-11	1.3518e-10	4.3441e-10	1.3035e-09	3.6602e-09	9.6413e-09	2.388e-08	5.5751e-08	1.23e-07	2.5712e-07	5.1065e-07	9.6639e-07	1.7482e-06	3.0337e-06	5.0695e-06	8.1937e-06	1.2872e-05	1.9766e-05	2.9848e-05	4.4604e-05	6.6362e-05	9.8809e-05	0.00014777	0.00022237	0.00033659	0.00051161	0.00077873	0.0011833	0.0017899	0.002688	0.0039992	0.0058849	0.0085538	0.01227	0.017356	0.0242	0.033249	0.045007	0.060022	0.078863	0.1021	0.13028	0.16388	0.20328	0.24875	0.30037	0.35807	0.42157	0.49041	0.56393	0.6413	0.72156	0.8036	0.88629	0.9684	1.0487	1.1262	1.1995	1.2679	1.3302	1.3858	1.4339	1.4739	1.5055	1.5283	1.5421	1.5468	1.5423	1.5287	1.5062	1.4751	1.4357	1.3886	1.3344	1.2737	1.2073	1.1361	1.0612	0.98351	0.90418	0.8243	0.74499	0.66728	0.59216	0.52051	0.45306	0.39041	0.333	0.28108	0.23477	0.194	0.15861	0.12829	0.10266	0.081291	0.063702	0.049412	0.037949	0.028867	0.021759	0.016262	0.012058	0.0088795	0.0065022	0.0047424	0.0034521	0.0025142	0.001837	0.0013502	0.0010005	0.00074859	0.00056553	0.00043081	0.00033005	0.00025339	0.00019415	0.00014786	0.0001115	8.2957e-05	6.0712e-05	4.3581e-05	3.0605e-05	2.0973e-05	1.399e-05	9.0613e-06	5.6838e-06	3.4437e-06	2.0101e-06	1.1273e-06	6.058e-07	3.1116e-07	1.5236e-07	7.0946e-08	3.134e-08	1.3102e-08	5.1728e-09	1.9242e-09	6.7304e-10	2.209e-10	6.7899e-11	1.9512e-11	5.2329e-12	1.3079e-12	3.0424e-13	6.5806e-14	1.3228e-14	2.4709e-15	4.2921e-16	6.9442e-17	1.0492e-17	1.4862e-18	1.9839e-19	2.5103e-20	3.0284e-21	3.4997e-22	3.8829e-23	4.1338e-24	4.2097e-25	4.0814e-26	3.7483e-27	3.2458e-28	2.6404e-29	2.0123e-30	1.4342e-31	9.5487e-33	5.9345e-34	3.442e-35	1.8631e-36	9.4119e-38	4.439e-39	1.9553e-40	8.0471e-42	3.0962e-43	1.1144e-44	3.7548e-46	1.1852e-47
8.6383e-172	1.0077e-172	1.3089e-173	1.8956e-174	3.0655e-175	5.5433e-176	1.1223e-176	2.547e-177	6.4865e-178	1.8557e-178	5.9695e-179	2.161e-179	8.8103e-180	4.0481e-180	2.0974e-180	1.226e-180	8.0885e-181	6.0249e-181	5.0678e-181	4.8145e-181	5.1659e-181	6.2602e-181	8.567e-181	1.3242e-180	2.3316e-180	5.466e-180	4.9561e-179	1.8754e-177	9.512e-176	5.3387e-174	3.2688e-172	2.1756e-170	1.5696e-168	1.2271e-166	1.0779e-164	1.5661e-162	8.9326e-160	1.0205e-156	1.2712e-153	1.5862e-150	1.9607e-147	2.3893e-144	2.8582e-141	3.3428e-138	3.8068e-135	4.2044e-132	4.4859e-129	4.6062e-126	4.5345e-123	4.2642e-120	3.8168e-117	3.2403e-114	2.6003e-111	1.966e-108	1.3959e-105	9.278e-103	5.7558e-100	3.323e-97	1.7803e-94	8.8271e-92	4.04e-89	1.7025e-86	6.5907e-84	2.3383e-81	7.5866e-79	2.2465e-76	6.0595e-74	1.4861e-71	3.3084e-69	6.6748e-67	1.2187e-64	2.011e-62	2.9954e-60	4.0229e-58	4.8668e-56	5.2989e-54	5.1887e-52	4.5664e-50	3.6101e-48	2.5628e-46	1.6332e-44	9.3417e-43	4.7956e-41	2.2096e-39	9.1391e-38	3.3942e-36	1.1324e-34	3.395e-33	9.1528e-32	2.2204e-30	4.8506e-29	9.5507e-28	1.6966e-26	2.7217e-25	3.9479e-24	5.1838e-23	6.1699e-22	6.6657e-21	6.546e-20	5.8526e-19	4.7714e-18	3.553e-17	2.4207e-16	1.5117e-15	8.6686e-15	4.5734e-14	2.2241e-13	9.9905e-13	4.1533e-12	1.6013e-11	5.7378e-11	1.9149e-10	5.9648e-10	1.7381e-09	4.7483e-09	1.2189e-08	2.9472e-08	6.7274e-08	1.4533e-07	2.9786e-07	5.8073e-07	1.0801e-06	1.9222e-06	3.284e-06	5.4062e-06	8.6116e-06	1.3336e-05	2.0188e-05	3.0046e-05	4.4243e-05	6.485e-05	9.5124e-05	0.00014018	0.00020798	0.00031067	0.00046649	0.00070225	0.0010566	0.001584	0.0023599	0.0034859	0.0050965	0.0073649	0.010509	0.014797	0.020546	0.028128	0.037957	0.050487	0.066192	0.08555	0.10902	0.13701	0.16986	0.20781	0.25096	0.29928	0.35258	0.4105	0.47254	0.53802	0.60616	0.67605	0.74674	0.81719	0.88638	0.95328	1.0169	1.0764	1.1309	1.1796	1.2219	1.2572	1.2853	1.3056	1.318	1.3223	1.3187	1.307	1.2875	1.2604	1.2262	1.1853	1.1382	1.0855	1.0281	0.96668	0.90216	0.83545	0.7675	0.69925	0.63165	0.56557	0.50182	0.44113	0.38408	0.33115	0.28269	0.2389	0.19983	0.16543	0.13555	0.10991	0.088217	0.070085	0.055126	0.042937	0.033127	0.025326	0.019196	0.014434	0.010776	0.0079956	0.0059047	0.0043478	0.0031987	0.0023573	0.0017448	0.0013002	0.00097744	0.00074193	0.00056844	0.00043886	0.00034044	0.00026442	0.00020481	0.00015761	0.00012005	9.023e-05	6.6719e-05	4.8409e-05	3.438e-05	2.3843e-05	1.6109e-05	1.0577e-05	6.7327e-06	4.1443e-06	2.4606e-06	1.4056e-06	7.7053e-07	4.0435e-07	2.0262e-07	9.673e-08	4.389e-08	1.8886e-08	7.6909e-09	2.9578e-09	1.0722e-09	3.6571e-10	1.1717e-10	3.5206e-11	9.9092e-12	2.6098e-12	6.4276e-13	1.48e-13	3.1869e-14	6.4246e-15	1.2147e-15	2.16e-16	3.625e-17	5.7653e-18	8.7258e-19	1.2612e-19	1.7445e-20	2.3097e-21	2.9224e-22	3.523e-23	4.031e-24	4.3612e-25	4.4468e-26	4.2614e-27	3.8304e-28	3.2249e-29	2.5408e-30	1.8723e-31	1.29e-32	8.3095e-34	5.0047e-35	2.8189e-36	1.4852e-37	7.3231e-39	3.3804e-40	1.4616e-41	5.9234e-43	2.2514e-44	8.0321e-46
8.8659e-166	1.1093e-166	1.5399e-167	2.375e-168	4.0757e-169	7.7923e-170	1.6618e-170	3.958e-171	1.0539e-171	3.1404e-172	1.0482e-172	3.9219e-173	1.6463e-173	7.758e-174	4.1065e-174	2.4427e-174	1.6335e-174	1.2284e-174	1.0391e-174	9.8883e-175	1.0586e-174	1.2748e-174	1.7269e-174	2.6312e-174	4.5286e-174	9.5095e-174	5.0627e-173	1.369e-171	6.0165e-170	2.9699e-168	1.5967e-166	9.3066e-165	5.8636e-163	3.983e-161	2.9216e-159	2.4429e-157	3.6615e-155	1.9802e-152	1.8714e-149	1.8912e-146	1.9059e-143	1.8955e-140	1.8519e-137	1.7701e-134	1.6488e-131	1.4908e-128	1.3036e-125	1.0983e-122	8.8823e-120	6.8715e-117	5.0672e-114	3.5498e-111	2.3546e-108	1.474e-105	8.6817e-103	4.7963e-100	2.4782e-97	1.1941e-94	5.3514e-92	2.2245e-89	8.5559e-87	3.0374e-84	9.9296e-82	2.9827e-79	8.215e-77	2.0705e-74	4.7666e-72	1.0005e-69	1.9118e-67	3.3201e-65	5.2332e-63	7.4768e-61	9.6714e-59	1.1314e-56	1.1959e-54	1.1411e-52	9.8232e-51	7.6237e-49	5.3316e-47	3.3586e-45	1.9053e-43	9.7314e-42	4.475e-40	1.8528e-38	6.9078e-37	2.3198e-35	7.0197e-34	1.9149e-32	4.7115e-31	1.0463e-29	2.0989e-28	3.8061e-27	6.2453e-26	9.2821e-25	1.251e-23	1.5306e-22	1.7023e-21	1.7234e-20	1.5903e-19	1.3396e-18	1.0317e-17	7.2761e-17	4.7072e-16	2.7982e-15	1.5312e-14	7.7269e-14	3.6027e-13	1.555e-12	6.2257e-12	2.3165e-11	8.0276e-11	2.5961e-10	7.8518e-10	2.2256e-09	5.9251e-09	1.4848e-08	3.5102e-08	7.8468e-08	1.6625e-07	3.3463e-07	6.4153e-07	1.1746e-06	2.0598e-06	3.4706e-06	5.6381e-06	8.8666e-06	1.3559e-05	2.0268e-05	2.978e-05	4.3276e-05	6.2575e-05	9.0521e-05	0.00013156	0.00019255	0.00028392	0.00042122	0.00062718	0.00093432	0.0013883	0.0020516	0.0030087	0.00437	0.0062778	0.0089105	0.012486	0.017264	0.023547	0.031673	0.042012	0.054955	0.070895	0.090215	0.11326	0.14032	0.17161	0.20725	0.24722	0.2914	0.33953	0.3912	0.44591	0.503	0.56176	0.62137	0.68099	0.73974	0.79675	0.85117	0.90218	0.94906	0.99112	1.0278	1.0585	1.083	1.1008	1.1118	1.1159	1.1129	1.1031	1.0865	1.0634	1.0341	0.99902	0.95873	0.91378	0.86483	0.81259	0.75782	0.70132	0.64391	0.58637	0.52949	0.474	0.42057	0.36977	0.32209	0.2779	0.23747	0.20093	0.16834	0.13963	0.11467	0.093233	0.075056	0.059835	0.047244	0.036955	0.028647	0.022017	0.016785	0.012702	0.0095509	0.0071436	0.0053231	0.0039591	0.0029456	0.0021977	0.0016484	0.0012458	0.00095008	0.00073151	0.00056819	0.00044434	0.00034882	0.00027391	0.00021435	0.00016656	0.00012809	9.7186e-05	7.2564e-05	5.3183e-05	3.8173e-05	2.6773e-05	1.8307e-05	1.2176e-05	7.8591e-06	4.9108e-06	2.9634e-06	1.7228e-06	9.6263e-07	5.1572e-07	2.643e-07	1.2928e-07	6.0226e-08	2.6667e-08	1.1201e-08	4.4547e-09	1.6747e-09	5.9426e-10	1.9876e-10	6.2595e-11	1.8547e-11	5.1681e-12	1.3544e-12	3.3401e-13	7.7601e-14	1.7016e-14	3.5295e-15	6.9448e-16	1.3e-16	2.3206e-17	3.9572e-18	6.4496e-19	1.0038e-19	1.4892e-20	2.1002e-21	2.8074e-22	3.5469e-23	4.2248e-24	4.7348e-25	4.9848e-26	4.9245e-27	4.5614e-28	3.9595e-29	3.2201e-30	2.4531e-31	1.7507e-32	1.1705e-33	7.3335e-35	4.3067e-36	2.3714e-37	1.225e-38	5.9385e-40	2.7036e-41	1.1566e-42	4.653e-44
6.9374e-160	9.3046e-161	1.3797e-161	2.2651e-162	4.1228e-163	8.33e-164	1.8705e-164	4.6736e-165	1.3006e-165	4.0354e-166	1.3971e-166	5.4019e-167	2.3342e-167	1.1279e-167	6.0983e-168	3.6909e-168	2.5015e-168	1.8992e-168	1.6155e-168	1.5399e-168	1.6447e-168	1.9685e-168	2.6396e-168	3.9654e-168	6.6878e-168	1.3152e-167	4.6561e-167	8.0231e-166	2.9837e-164	1.2939e-162	6.1131e-161	3.1235e-159	1.7207e-157	1.0191e-155	6.4739e-154	4.4287e-152	3.5023e-150	5.1894e-148	2.4987e-145	1.9298e-142	1.5772e-139	1.2809e-136	1.0231e-133	8.0022e-131	6.1043e-128	4.5246e-125	3.2467e-122	2.2473e-119	1.4951e-116	9.5284e-114	5.7969e-111	3.3557e-108	1.8424e-105	9.564e-103	4.6798e-100	2.1521e-97	9.2754e-95	3.736e-92	1.4027e-89	4.896e-87	1.585e-84	4.7476e-82	1.3128e-79	3.3444e-77	7.8322e-75	1.683e-72	3.3125e-70	5.9611e-68	9.793e-66	1.4665e-63	1.9989e-61	2.4771e-59	2.7876e-57	2.8456e-55	2.6327e-53	2.2056e-51	1.6722e-49	1.1465e-47	7.1058e-46	3.9795e-44	2.0132e-42	9.1993e-41	3.7964e-39	1.4151e-37	4.7646e-36	1.4495e-34	3.986e-33	9.9115e-32	2.2299e-30	4.5419e-29	8.3813e-28	1.4024e-26	2.1296e-25	2.9378e-24	3.6856e-23	4.2098e-22	4.3834e-21	4.1659e-20	3.6187e-19	2.8772e-18	2.0971e-17	1.4034e-16	8.6363e-16	4.8957e-15	2.5609e-14	1.2383e-13	5.5451e-13	2.3038e-12	8.8976e-12	3.2006e-11	1.0744e-10	3.3727e-10	9.9201e-10	2.7397e-09	7.1191e-09	1.7443e-08	4.0385e-08	8.8548e-08	1.8428e-07	3.6484e-07	6.8887e-07	1.2436e-06	2.1523e-06	3.5821e-06	5.7521e-06	8.9455e-06	1.3531e-05	2.0004e-05	2.9065e-05	4.1744e-05	5.9624e-05	8.5157e-05	0.00012216	0.00017648	0.00025696	0.00037674	0.00055483	0.00081835	0.001205	0.0017665	0.0025716	0.0037104	0.0052983	0.0074794	0.01043	0.014358	0.019507	0.026151	0.034587	0.045131	0.058106	0.073823	0.092572	0.1146	0.14008	0.16914	0.20179	0.23795	0.27742	0.3199	0.36499	0.41219	0.4609	0.51048	0.56022	0.60939	0.65726	0.7031	0.74621	0.78595	0.82172	0.853	0.87933	0.90035	0.91576	0.92538	0.92907	0.92681	0.91866	0.90476	0.88533	0.86068	0.83118	0.79728	0.7595	0.71841	0.67463	0.62882	0.58165	0.5338	0.48595	0.43873	0.39274	0.34852	0.30653	0.26716	0.2307	0.19735	0.16723	0.14034	0.11665	0.096029	0.078295	0.063231	0.050588	0.040103	0.03151	0.024547	0.018969	0.01455	0.011086	0.0083989	0.0063355	0.0047659	0.0035823	0.0026966	0.0020377	0.0015493	0.0011875	0.0009186	0.00071717	0.00056445	0.00044687	0.00035479	0.00028152	0.00022246	0.00017448	0.0001354	0.00010368	7.814e-05	5.783e-05	4.1936e-05	2.9734e-05	2.0569e-05	1.3852e-05	9.0619e-06	5.7453e-06	3.5223e-06	2.0833e-06	1.186e-06	6.4852e-07	3.3985e-07	1.7033e-07	8.149e-08	3.7145e-08	1.6105e-08	6.6313e-09	2.5895e-09	9.5794e-10	3.3539e-10	1.1107e-10	3.4784e-11	1.0303e-11	2.888e-12	7.6692e-13	1.9321e-13	4.6262e-14	1.0546e-14	2.2927e-15	4.7591e-16	9.4366e-17	1.7867e-17	3.2262e-18	5.5458e-19	9.0551e-20	1.4011e-20	2.0501e-21	2.831e-22	3.6837e-23	4.5109e-24	5.1936e-25	5.6182e-26	5.7075e-27	5.4435e-28	4.8732e-29	4.095e-30	3.2299e-31	2.3916e-32	1.6628e-33	1.0858e-34	6.6616e-36	3.8415e-37	2.0832e-38	1.063e-39	5.1064e-41	2.3112e-42
4.1257e-154	5.9279e-155	9.3841e-156	1.639e-156	3.1624e-157	6.7492e-158	1.5951e-158	4.1791e-159	1.2151e-159	3.9239e-160	1.4087e-160	5.6268e-161	2.5022e-161	1.2395e-161	6.8443e-162	4.2141e-162	2.8944e-162	2.2183e-162	1.8974e-162	1.8115e-162	1.9306e-162	2.2964e-162	3.0486e-162	4.5162e-162	7.4732e-162	1.4076e-161	3.8102e-161	3.8692e-160	1.1601e-158	4.4029e-157	1.8291e-155	8.2013e-154	3.9548e-152	2.0452e-150	1.1312e-148	6.6779e-147	4.2345e-145	3.1345e-143	4.3707e-141	1.7874e-138	1.1179e-135	7.3696e-133	4.8153e-130	3.0855e-127	1.9303e-124	1.1745e-121	6.9258e-119	3.9442e-116	2.1619e-113	1.1367e-110	5.7139e-108	2.7374e-105	1.2459e-102	5.3715e-100	2.187e-97	8.3855e-95	3.0194e-92	1.0183e-89	3.2081e-87	9.4186e-85	2.5707e-82	6.508e-80	1.5249e-77	3.2999e-75	6.5825e-73	1.2081e-70	2.0364e-68	3.1473e-66	4.4533e-64	5.7604e-62	6.8026e-60	7.3251e-58	7.1843e-56	6.4114e-54	5.2014e-52	3.833e-50	2.564e-48	1.556e-46	8.5624e-45	4.2709e-43	1.9305e-41	7.9065e-40	2.9337e-38	9.8629e-37	3.0047e-35	8.2967e-34	2.0771e-32	4.717e-31	9.7217e-30	1.8195e-28	3.0945e-27	4.7866e-26	6.7393e-25	8.6451e-24	1.0115e-22	1.0805e-21	1.0552e-20	9.4314e-20	7.7262e-19	5.8088e-18	4.014e-17	2.5532e-16	1.4973e-15	8.108e-15	4.0613e-14	1.8849e-13	8.1202e-13	3.2529e-12	1.2139e-11	4.2283e-11	1.3772e-10	4.2031e-10	1.2042e-09	3.2453e-09	8.244e-09	1.978e-08	4.4916e-08	9.6741e-08	1.9805e-07	3.8627e-07	7.1935e-07	1.2823e-06	2.1937e-06	3.612e-06	5.7419e-06	8.8442e-06	1.3253e-05	1.941e-05	2.793e-05	3.9706e-05	5.6097e-05	7.9195e-05	0.00011223	0.00016015	0.00023036	0.00033381	0.00048629	0.00071012	0.0010362	0.0015066	0.002177	0.00312	0.004428	0.0062162	0.0086247	0.01182	0.015994	0.021366	0.028171	0.036664	0.047101	0.059736	0.074805	0.092511	0.11301	0.13641	0.16274	0.19194	0.22388	0.25834	0.295	0.33347	0.37329	0.41393	0.45482	0.49537	0.53497	0.573	0.60888	0.64205	0.672	0.69827	0.72046	0.73824	0.75136	0.75964	0.76296	0.76129	0.75469	0.74327	0.72723	0.70684	0.68242	0.65436	0.62311	0.58916	0.55304	0.51529	0.47648	0.43718	0.39793	0.35926	0.32165	0.28553	0.25126	0.21916	0.18944	0.16226	0.13771	0.11579	0.096457	0.079609	0.065099	0.052749	0.042361	0.033723	0.026621	0.020847	0.016203	0.012509	0.0095994	0.0073313	0.0055799	0.0042396	0.0032221	0.0024549	0.0018793	0.0014486	0.0011259	0.00088316	0.0006988	0.00055697	0.00044612	0.00035801	0.00028691	0.00022884	0.0001811	0.00014179	0.00010955	8.3325e-05	6.2262e-05	4.5609e-05	3.2687e-05	2.2873e-05	1.5595e-05	1.0339e-05	6.6508e-06	4.1422e-06	2.4925e-06	1.4461e-06	8.0723e-07	4.3274e-07	2.2237e-07	1.0934e-07	5.1366e-08	2.3022e-08	9.8315e-09	3.9966e-09	1.5453e-09	5.6805e-10	1.9848e-10	6.5927e-11	2.0828e-11	6.2629e-12	1.7942e-12	4.9025e-13	1.2788e-13	3.1871e-14	7.5904e-15	1.7271e-15	3.7517e-16	7.7697e-17	1.5315e-17	2.8682e-18	5.0936e-19	8.5634e-20	1.3608e-20	2.0412e-21	2.8873e-22	3.8479e-23	4.8287e-24	5.7029e-25	6.3369e-26	6.6235e-27	6.5114e-28	6.0205e-29	5.2357e-30	4.2832e-31	3.2968e-32	2.3882e-33	1.6286e-34	1.046e-35	6.3302e-37	3.6115e-38	1.9436e-39	9.8735e-41
1.8596e-148	2.8604e-149	4.831e-150	8.971e-151	1.8339e-151	4.132e-152	1.0273e-152	2.821e-153	8.5654e-154	2.8781e-154	1.0711e-154	4.4181e-155	2.0213e-155	1.0263e-155	5.7862e-156	3.6238e-156	2.522e-156	1.951e-156	1.6779e-156	1.6046e-156	1.7062e-156	2.0172e-156	2.6515e-156	3.874e-156	6.2945e-156	1.1481e-155	2.6467e-155	1.5952e-154	3.5517e-153	1.1677e-151	4.2659e-150	1.6803e-148	7.1012e-147	3.2107e-145	1.5488e-143	7.9508e-142	4.3362e-140	2.5331e-138	1.7313e-136	2.165e-134	7.245e-132	3.6397e-129	1.9311e-126	1.0141e-123	5.2095e-121	2.606e-118	1.2648e-115	5.9359e-113	2.6847e-110	1.1664e-107	4.8525e-105	1.9271e-102	7.2834e-100	2.6122e-97	8.8645e-95	2.8385e-92	8.5538e-90	2.4195e-87	6.4076e-85	1.585e-82	3.6538e-80	7.8317e-78	1.5576e-75	2.8686e-73	4.8828e-71	7.6676e-69	1.1089e-66	1.4747e-64	1.8005e-62	2.0155e-60	2.0658e-58	1.9365e-56	1.6584e-54	1.2962e-52	9.2385e-51	5.9996e-49	3.5477e-47	1.9092e-45	9.3454e-44	4.1596e-42	1.6831e-40	6.1899e-39	2.069e-37	6.2854e-36	1.7357e-34	4.3582e-33	9.9524e-32	2.0679e-30	3.9115e-29	6.7393e-28	1.0584e-26	1.5161e-25	1.9828e-24	2.3695e-23	2.59e-22	2.5924e-21	2.3786e-20	2.0031e-19	1.5502e-18	1.104e-17	7.2453e-17	4.3881e-16	2.4563e-15	1.2728e-14	6.1153e-14	2.7287e-13	1.1328e-12	4.3823e-12	1.5828e-11	5.3469e-11	1.6925e-10	5.0293e-10	1.4057e-09	3.7024e-09	9.2077e-09	2.1665e-08	4.8322e-08	1.0238e-07	2.0649e-07	3.9728e-07	7.3076e-07	1.2881e-06	2.1813e-06	3.5582e-06	5.6079e-06	8.5681e-06	1.2739e-05	1.8511e-05	2.6419e-05	3.7232e-05	5.2103e-05	7.2797e-05	0.00010202	0.0001439	0.00020458	0.00029308	0.00042236	0.00061061	0.00088291	0.001273	0.0018257	0.0025986	0.0036651	0.005116	0.0070617	0.0096328	0.01298	0.017275	0.022704	0.029466	0.037764	0.047801	0.059765	0.073823	0.090109	0.10871	0.12966	0.15293	0.17843	0.206	0.23539	0.2663	0.29838	0.33121	0.36433	0.39727	0.42952	0.46059	0.48999	0.51724	0.54192	0.56363	0.58204	0.59685	0.60785	0.61486	0.6178	0.61664	0.61141	0.60221	0.58921	0.57264	0.55277	0.52994	0.50451	0.47691	0.44756	0.41694	0.38548	0.35367	0.32193	0.2907	0.26035	0.23123	0.20363	0.17778	0.15385	0.13198	0.1122	0.094538	0.078943	0.065333	0.053593	0.043581	0.035138	0.028097	0.02229	0.017552	0.013727	0.01067	0.0082507	0.006355	0.0048827	0.0037488	0.0028818	0.002223	0.0017243	0.0013473	0.0010617	0.000844	0.00067643	0.00054563	0.00044188	0.00035823	0.00028981	0.00023324	0.0001862	0.00014705	0.00011462	8.7986e-05	6.6377e-05	4.9118e-05	3.5583e-05	2.5189e-05	1.739e-05	1.1686e-05	7.6285e-06	4.8281e-06	2.9569e-06	1.7491e-06	9.9744e-07	5.4744e-07	2.887e-07	1.4608e-07	7.083e-08	3.287e-08	1.4587e-08	6.186e-09	2.5056e-09	9.6913e-10	3.5796e-10	1.2629e-10	4.2577e-11	1.3723e-11	4.2303e-12	1.2477e-12	3.5213e-13	9.5068e-14	2.4537e-14	6.0484e-15	1.4221e-15	3.1846e-16	6.7818e-17	1.3713e-17	2.6289e-18	4.7723e-19	8.1944e-20	1.3296e-20	2.0372e-21	2.9457e-22	4.0175e-23	5.1667e-24	6.2638e-25	7.1574e-26	7.7078e-27	7.8229e-28	7.483e-29	6.7472e-30	5.7356e-31	4.5979e-32	3.477e-33	2.4812e-34	1.6716e-35	1.0638e-36	6.3982e-38	3.6393e-39
6.3366e-143	1.0427e-143	1.8776e-144	3.7046e-145	8.0187e-146	1.9063e-146	4.9829e-147	1.4335e-147	4.5434e-148	1.5877e-148	6.1228e-149	2.6074e-149	1.2269e-149	6.3835e-150	3.6739e-150	2.3399e-150	1.6499e-150	1.2881e-150	1.1139e-150	1.0669e-150	1.132e-150	1.3303e-150	1.7314e-150	2.4954e-150	3.9831e-150	7.0747e-150	1.4833e-149	5.822e-149	8.6734e-148	2.4118e-146	7.7374e-145	2.6801e-143	9.9391e-142	3.9342e-140	1.6577e-138	7.4157e-137	3.5131e-135	1.7602e-133	9.4134e-132	5.853e-130	6.2941e-128	1.669e-125	6.6754e-123	2.8442e-120	1.1997e-117	4.9406e-115	1.9769e-112	7.6581e-110	2.8629e-107	1.0296e-104	3.5509e-102	1.171e-99	3.6815e-97	1.1003e-94	3.1178e-92	8.3528e-90	2.1103e-87	5.0155e-85	1.1186e-82	2.3356e-80	4.5557e-78	8.2829e-76	1.4009e-73	2.1998e-71	3.201e-69	4.3089e-67	5.3568e-65	6.1407e-63	6.4817e-61	6.2908e-59	5.6071e-57	4.5844e-55	3.4346e-53	2.3557e-51	1.4778e-49	8.4733e-48	4.4376e-46	2.1216e-44	9.2558e-43	3.6832e-41	1.3366e-39	4.4224e-38	1.3341e-36	3.6691e-35	9.2021e-34	2.1049e-32	4.3926e-31	8.3663e-30	1.4551e-28	2.3121e-27	3.3588e-26	4.4641e-25	5.4326e-24	6.0588e-23	6.1985e-22	5.8231e-21	5.0288e-20	3.9969e-19	2.9273e-18	1.9781e-17	1.235e-16	7.1339e-16	3.8182e-15	1.8963e-14	8.7532e-14	3.7612e-13	1.5069e-12	5.6389e-12	1.9742e-11	6.4777e-11	1.9956e-10	5.7827e-10	1.579e-09	4.0704e-09	9.9248e-09	2.2932e-08	5.031e-08	1.05e-07	2.0891e-07	3.9703e-07	7.223e-07	1.2607e-06	2.116e-06	3.4244e-06	5.358e-06	8.1316e-06	1.2013e-05	1.7344e-05	2.4589e-05	3.4402e-05	4.7754e-05	6.6119e-05	9.1742e-05	0.00012801	0.00017998	0.00025501	0.00036359	0.00052041	0.00074555	0.001066	0.001517	0.0021442	0.003005	0.0041702	0.0057257	0.0077728	0.010429	0.013825	0.018107	0.023429	0.02995	0.037827	0.047211	0.058235	0.071006	0.085601	0.10205	0.12035	0.14043	0.16218	0.18541	0.20989	0.23536	0.26148	0.28791	0.31426	0.34012	0.36511	0.38881	0.41085	0.43086	0.44852	0.46355	0.47569	0.48476	0.49063	0.49319	0.49244	0.48838	0.48112	0.47078	0.45756	0.44168	0.42341	0.40307	0.38099	0.35753	0.33306	0.30795	0.28258	0.25729	0.23242	0.20826	0.1851	0.16316	0.14261	0.12359	0.10619	0.090453	0.076386	0.063952	0.053085	0.043693	0.035665	0.028878	0.023202	0.018504	0.014657	0.011538	0.0090337	0.0070424	0.0054731	0.0042469	0.0032962	0.0025639	0.0020027	0.0015739	0.0012464	0.00099531	0.0008015	0.00065021	0.00053043	0.00043406	0.0003553	0.00029005	0.00023546	0.00018958	0.00015101	0.00011874	9.1984e-05	7.0064e-05	5.2378e-05	3.8362e-05	2.7478e-05	1.9213e-05	1.3091e-05	8.6757e-06	5.5827e-06	3.482e-06	2.1014e-06	1.2253e-06	6.8916e-07	3.7341e-07	1.9467e-07	9.755e-08	4.6942e-08	2.1677e-08	9.6016e-09	4.0779e-09	1.6604e-09	6.4817e-10	2.4258e-10	8.7046e-11	2.9949e-11	9.8785e-12	3.1227e-12	9.455e-13	2.7398e-13	7.5898e-14	2.0077e-14	5.0642e-15	1.2165e-15	2.7793e-16	6.0314e-17	1.2419e-17	2.424e-18	4.4809e-19	7.8394e-20	1.2973e-20	2.0296e-21	3.0008e-22	4.1917e-23	5.5308e-24	6.8922e-25	8.1111e-26	9.0146e-27	9.4618e-28	9.3804e-29	8.7854e-30	7.775e-31	6.5038e-32	5.1442e-33	3.8489e-34	2.7254e-35	1.8275e-36	1.1611e-37
1.6289e-137	2.8652e-138	5.4966e-139	1.1515e-139	2.6374e-140	6.6117e-141	1.816e-141	5.4704e-142	1.8089e-142	6.5715e-143	2.6249e-143	1.1536e-143	5.5814e-144	2.9748e-144	1.7473e-144	1.1316e-144	8.082e-145	6.368e-145	5.5362e-145	5.3111e-145	5.6227e-145	6.5686e-145	8.4666e-145	1.2039e-144	1.8884e-144	3.2754e-144	6.4698e-144	1.8839e-143	1.7342e-142	3.888e-141	1.0897e-139	3.3212e-138	1.0822e-136	3.7557e-135	1.3843e-133	5.4052e-132	2.2301e-130	9.6989e-129	4.4415e-127	2.1612e-125	1.2057e-123	1.079e-121	2.1996e-119	6.9257e-117	2.3635e-114	8.0051e-112	2.644e-109	8.4691e-107	2.6216e-104	7.8182e-102	2.2395e-99	6.144e-97	1.6098e-94	4.017e-92	9.5215e-90	2.1382e-87	4.5377e-85	9.0785e-83	1.7083e-80	3.0167e-78	4.9883e-76	7.7078e-74	1.1107e-71	1.4899e-69	1.857e-67	2.147e-65	2.2988e-63	2.276e-61	2.0809e-59	1.7545e-57	1.3625e-55	9.7348e-54	6.3927e-52	3.8547e-50	2.1326e-48	1.0817e-46	5.027e-45	2.1393e-43	8.3337e-42	2.9705e-40	9.6857e-39	2.8886e-37	7.8791e-36	1.9656e-34	4.4852e-33	9.3638e-32	1.789e-30	3.1292e-29	5.013e-28	7.3597e-27	9.9079e-26	1.2239e-24	1.3885e-23	1.4477e-22	1.3886e-21	1.2265e-20	9.9864e-20	7.5039e-19	5.2096e-18	3.3459e-17	1.9906e-16	1.0984e-15	5.6301e-15	2.6843e-14	1.1923e-13	4.9409e-13	1.9135e-12	6.9362e-12	2.3574e-11	7.5242e-11	2.2593e-10	6.393e-10	1.7078e-09	4.3147e-09	1.0328e-08	2.3467e-08	5.0705e-08	1.0438e-07	2.0513e-07	3.8557e-07	6.9463e-07	1.202e-06	2.0022e-06	3.2186e-06	5.0062e-06	7.5568e-06	1.1107e-05	1.5957e-05	2.2504e-05	3.1303e-05	4.3164e-05	5.9307e-05	8.1571e-05	0.00011272	0.00015685	0.00021989	0.00031027	0.00043969	0.0006241	0.00088471	0.0012493	0.0017532	0.002441	0.0033674	0.0045982	0.0062111	0.0082957	0.010953	0.014293	0.018434	0.023498	0.029608	0.036878	0.045414	0.055303	0.066606	0.079357	0.09355	0.10914	0.12605	0.14415	0.16327	0.18318	0.20366	0.22443	0.24518	0.2656	0.28538	0.30418	0.32172	0.33769	0.35183	0.3639	0.3737	0.38107	0.38589	0.3881	0.38766	0.3846	0.37899	0.37092	0.36056	0.34809	0.33373	0.31772	0.30035	0.2819	0.26265	0.24291	0.22298	0.20311	0.18359	0.16463	0.14646	0.12924	0.11311	0.098185	0.084521	0.072154	0.061085	0.051288	0.04271	0.035282	0.028917	0.023521	0.018994	0.015235	0.012144	0.0096264	0.0075957	0.0059722	0.0046853	0.0036733	0.0028831	0.0022696	0.0017953	0.0014294	0.0011468	0.00092756	0.00075613	0.00062048	0.00051157	0.00042275	0.0003492	0.00028754	0.00023538	0.00019109	0.00015351	0.00012176	9.5188e-05	7.3209e-05	5.5297e-05	4.0952e-05	2.9687e-05	2.103e-05	1.4534e-05	9.7831e-06	6.404e-06	4.0703e-06	2.5082e-06	1.4964e-06	8.6325e-07	4.81e-07	2.5859e-07	1.3402e-07	6.6914e-08	3.2165e-08	1.488e-08	6.6221e-09	2.8344e-09	1.1666e-09	4.6155e-10	1.7549e-10	6.4094e-11	2.2473e-11	7.5586e-12	2.4365e-12	7.5197e-13	2.2193e-13	6.256e-14	1.6824e-14	4.3111e-15	1.0515e-15	2.4387e-16	5.3735e-17	1.1239e-17	2.23e-18	4.195e-19	7.4778e-20	1.2626e-20	2.0188e-21	3.0556e-22	4.3774e-23	5.9348e-24	7.6141e-25	9.2441e-26	1.0621e-26	1.1549e-27	1.1888e-28	1.1586e-29	1.0695e-30	9.353e-32	7.7525e-33	6.0934e-34	4.5439e-35	3.2166e-36
3.1528e-132	5.9232e-133	1.2097e-133	2.6888e-134	6.5121e-135	1.7203e-135	4.9621e-136	1.5642e-136	5.3938e-137	2.0361e-137	8.4202e-138	3.8175e-138	1.8985e-138	1.0362e-138	6.2105e-139	4.0886e-139	2.9577e-139	2.3515e-139	2.0552e-139	1.9748e-139	2.0861e-139	2.4228e-139	3.093e-139	4.3397e-139	6.6915e-139	1.1352e-138	2.1504e-138	5.2022e-138	2.9517e-137	4.9296e-136	1.1908e-134	3.1924e-133	9.1526e-132	2.7888e-130	9.0057e-129	3.0742e-127	1.1066e-125	4.19e-124	1.6648e-122	6.9349e-121	3.053e-119	1.5117e-117	1.102e-115	1.6776e-113	4.0923e-111	1.1141e-108	3.029e-106	8.0304e-104	2.0619e-101	5.1087e-99	1.2177e-96	2.7846e-94	6.0921e-92	1.2717e-89	2.5265e-87	4.7651e-85	8.511e-83	1.4363e-80	2.2848e-78	3.419e-76	4.8022e-74	6.3187e-72	7.7735e-70	8.9252e-68	9.5472e-66	9.4989e-64	8.7769e-62	7.5204e-60	5.9673e-58	4.3793e-56	2.9689e-54	1.8573e-52	1.0711e-50	5.6897e-49	2.7813e-47	1.2504e-45	5.1663e-44	1.9609e-42	6.8335e-41	2.1859e-39	6.4165e-38	1.7281e-36	4.2701e-35	9.68e-34	2.0135e-32	3.8436e-31	6.7353e-30	1.0838e-28	1.6023e-27	2.1772e-26	2.721e-25	3.1296e-24	3.3153e-23	3.2372e-22	2.9161e-21	2.4258e-20	1.8653e-19	1.3272e-18	8.7489e-18	5.3491e-17	3.0372e-16	1.6036e-15	7.8834e-15	3.6137e-14	1.5468e-13	6.1915e-13	2.3211e-12	8.1624e-12	2.6968e-11	8.3844e-11	2.4571e-10	6.7989e-10	1.7792e-09	4.4113e-09	1.038e-08	2.322e-08	4.9474e-08	1.0058e-07	1.9547e-07	3.6382e-07	6.4983e-07	1.1161e-06	1.8473e-06	2.9533e-06	4.5718e-06	6.8725e-06	1.0063e-05	1.4404e-05	2.0236e-05	2.8025e-05	3.8446e-05	5.2495e-05	7.1669e-05	9.8197e-05	0.00013536	0.00018789	0.00026246	0.00036833	0.00051799	0.00072799	0.0010198	0.0014208	0.001965	0.0026941	0.0036582	0.004916	0.0065351	0.0085913	0.011168	0.014354	0.018242	0.022925	0.02849	0.035018	0.042577	0.051217	0.060967	0.071827	0.083771	0.096737	0.11063	0.12534	0.14069	0.1565	0.17256	0.18865	0.20453	0.21993	0.23462	0.24835	0.26089	0.27203	0.28157	0.28935	0.29525	0.29916	0.30103	0.30083	0.29858	0.29433	0.28816	0.28019	0.27057	0.25947	0.2471	0.23365	0.21937	0.20447	0.18919	0.17376	0.15838	0.14327	0.12861	0.11454	0.10121	0.088723	0.077154	0.066558	0.056957	0.048353	0.040724	0.034033	0.028225	0.023236	0.018994	0.015423	0.012446	0.0099875	0.0079764	0.0063456	0.0050345	0.0039887	0.0031607	0.0025093	0.0019994	0.0016015	0.0012914	0.0010493	0.00085911	0.00070847	0.00058767	0.00048936	0.00040813	0.00034005	0.00028232	0.00023298	0.00019068	0.00015445	0.00012357	9.7484e-05	7.5705e-05	5.7781e-05	4.3275e-05	3.1755e-05	2.2796e-05	1.5985e-05	1.0933e-05	7.2837e-06	4.7199e-06	2.9712e-06	1.8147e-06	1.0743e-06	6.1579e-07	3.4147e-07	1.8304e-07	9.4785e-08	4.739e-08	2.2865e-08	1.0641e-08	4.7743e-09	2.0643e-09	8.5961e-10	3.4454e-10	1.3282e-10	4.9202e-11	1.7499e-11	5.9684e-12	1.9502e-12	6.0978e-13	1.8225e-13	5.2014e-14	1.416e-14	3.6738e-15	9.076e-16	2.1335e-16	4.7686e-17	1.0129e-17	2.0435e-18	3.9144e-19	7.116e-20	1.2274e-20	2.0082e-21	3.1161e-22	4.5853e-23	6.3979e-24	8.4647e-25	1.062e-25	1.2636e-26	1.426e-27	1.5268e-28	1.5513e-29	1.4963e-30	1.3706e-31	1.1928e-32	9.8673e-34	7.7635e-35
4.5878e-127	9.1979e-128	1.9981e-128	4.7085e-129	1.2049e-129	3.3521e-130	1.0147e-130	3.3455e-131	1.2023e-131	4.7135e-132	2.0173e-132	9.431e-133	4.8192e-133	2.693e-133	1.6464e-133	1.1016e-133	8.0699e-134	6.4734e-134	5.6874e-134	5.4733e-134	5.7696e-134	6.6618e-134	8.4244e-134	1.1666e-133	1.7687e-133	2.9374e-133	5.3845e-133	1.1656e-132	4.4225e-132	5.0051e-131	1.0114e-129	2.3778e-128	6.0036e-127	1.6087e-125	4.5586e-124	1.3628e-122	4.2873e-121	1.416e-119	4.8979e-118	1.7703e-116	6.6788e-115	2.6472e-113	1.1554e-111	6.8001e-110	7.5364e-108	1.3916e-105	3.0003e-103	6.5429e-101	1.3938e-98	2.8739e-96	5.7114e-94	1.0908e-91	1.9967e-89	3.4938e-87	5.8297e-85	9.2531e-83	1.3938e-80	1.988e-78	2.6791e-76	3.4041e-74	4.0696e-72	4.5691e-70	4.8086e-68	4.7353e-66	4.356e-64	3.7373e-62	2.986e-60	2.2186e-58	1.5309e-56	9.7988e-55	5.8108e-53	3.1893e-51	1.6185e-49	7.5881e-48	3.284e-46	1.3111e-44	4.8256e-43	1.6366e-41	5.1122e-40	1.4703e-38	3.8928e-37	9.4857e-36	2.1272e-34	4.3901e-33	8.3392e-32	1.4582e-30	2.3479e-29	3.482e-28	4.7585e-27	5.9953e-26	6.9677e-25	7.4745e-24	7.4063e-23	6.7838e-22	5.7486e-21	4.511e-20	3.2811e-19	2.2143e-18	1.3881e-17	8.0916e-17	4.3916e-16	2.2218e-15	1.0492e-14	4.6308e-14	1.9129e-13	7.4063e-13	2.6915e-12	9.1944e-12	2.957e-11	8.9673e-11	2.5682e-10	6.9576e-10	1.7859e-09	4.3505e-09	1.0075e-08	2.2216e-08	4.6731e-08	9.3928e-08	1.8072e-07	3.3346e-07	5.9116e-07	1.0089e-06	1.661e-06	2.6438e-06	4.0779e-06	6.1117e-06	8.9261e-06	1.2746e-05	1.7861e-05	2.4664e-05	3.3709e-05	4.581e-05	6.217e-05	8.4571e-05	0.00011561	0.00015903	0.00022007	0.00030594	0.00042633	0.00059401	0.00082546	0.0011415	0.0015679	0.0021363	0.0028839	0.0038549	0.0050994	0.0066739	0.0086404	0.011065	0.014016	0.017562	0.021771	0.026702	0.032408	0.038927	0.046283	0.054481	0.063502	0.073304	0.083823	0.094966	0.10662	0.11864	0.13088	0.14317	0.15531	0.16713	0.17842	0.189	0.19868	0.20731	0.21474	0.22082	0.22547	0.2286	0.23016	0.23013	0.22852	0.22536	0.22073	0.21472	0.20743	0.19901	0.18959	0.17936	0.16848	0.15713	0.14549	0.13372	0.122	0.11047	0.099279	0.088543	0.078364	0.06882	0.059973	0.051859	0.044499	0.037893	0.032025	0.026867	0.022378	0.018512	0.015213	0.012426	0.010093	0.0081582	0.0065672	0.00527	0.0042207	0.0033783	0.0027065	0.0021738	0.0017531	0.0014217	0.0011607	0.00095458	0.00079071	0.0006592	0.00055234	0.00046425	0.00039056	0.00032808	0.00027453	0.00022832	0.00018834	0.00015379	0.0001241	9.8789e-05	7.7463e-05	5.9742e-05	4.5252e-05	3.3617e-05	2.4459e-05	1.7406e-05	1.21e-05	8.2059e-06	5.4227e-06	3.4879e-06	2.1812e-06	1.325e-06	7.8114e-07	4.4656e-07	2.4737e-07	1.327e-07	6.8884e-08	3.4583e-08	1.6781e-08	7.8652e-09	3.5582e-09	1.5525e-09	6.5281e-10	2.6428e-10	1.0291e-10	3.8506e-11	1.3829e-11	4.7627e-12	1.5711e-12	4.9597e-13	1.4968e-13	4.3152e-14	1.1873e-14	3.1158e-15	7.7932e-16	1.8567e-16	4.2117e-17	9.0913e-18	1.8668e-18	3.6452e-19	6.7668e-20	1.1939e-20	2.0019e-21	3.1896e-22	4.8284e-23	6.9448e-24	9.4911e-25	1.2326e-25	1.5214e-26	1.7851e-27	1.9916e-28	2.1134e-29	2.134e-30	2.0511e-31	1.8776e-32	1.6378e-33
5.0127e-122	1.0715e-122	2.4736e-123	6.1749e-124	1.6684e-124	4.8843e-125	1.5506e-125	5.3435e-126	2.0003e-126	8.1401e-127	3.6036e-127	1.7366e-127	9.1143e-128	5.2126e-128	3.2499e-128	2.2096e-128	1.6388e-128	1.3262e-128	1.1712e-128	1.1288e-128	1.1874e-128	1.3632e-128	1.7079e-128	2.3345e-128	3.4811e-128	5.6636e-128	1.0092e-127	2.0376e-127	5.8293e-127	4.2025e-126	6.7166e-125	1.3722e-123	3.0514e-122	7.2006e-121	1.7937e-119	4.7042e-118	1.2958e-116	3.7402e-115	1.1286e-113	3.5515e-112	1.1631e-110	3.9594e-109	1.4073e-107	5.3974e-106	2.5736e-104	2.0448e-102	2.7681e-100	4.6633e-98	8.1355e-96	1.3939e-93	2.3125e-91	3.6957e-89	5.6717e-87	8.3366e-85	1.1707e-82	1.5671e-80	1.9951e-78	2.4102e-76	2.7573e-74	2.981e-72	3.0398e-70	2.9183e-68	2.6328e-66	2.2283e-64	1.7665e-62	1.3096e-60	9.0663e-59	5.8533e-57	3.5196e-55	1.9687e-53	1.0233e-51	4.9372e-50	2.2092e-48	9.16e-47	3.5166e-45	1.2492e-43	4.1036e-42	1.246e-40	3.4953e-39	9.0561e-38	2.1666e-36	4.7854e-35	9.7575e-34	1.8366e-32	3.1917e-31	5.1215e-30	7.5903e-29	1.0393e-27	1.3152e-26	1.539e-25	1.6661e-24	1.6697e-23	1.5501e-22	1.334e-21	1.0652e-20	7.8971e-20	5.4417e-19	3.4886e-18	2.0828e-17	1.1593e-16	6.0231e-16	2.9242e-15	1.3283e-14	5.6528e-14	2.2566e-13	8.4622e-13	2.9849e-12	9.9184e-12	3.1091e-11	9.2078e-11	2.5803e-10	6.8524e-10	1.7272e-09	4.1389e-09	9.4436e-09	2.055e-08	4.2722e-08	8.4988e-08	1.6206e-07	2.9674e-07	5.2267e-07	8.8727e-07	1.4545e-06	2.3072e-06	3.5497e-06	5.3098e-06	7.7436e-06	1.1044e-05	1.5457e-05	2.131e-05	2.906e-05	3.9365e-05	5.3188e-05	7.1939e-05	9.7663e-05	0.00013327	0.00018284	0.00025192	0.00034796	0.0004807	0.00066262	0.00090943	0.0012405	0.0016792	0.0022534	0.0029955	0.0039424	0.0051357	0.0066205	0.0084452	0.01066	0.013316	0.016461	0.02014	0.024393	0.029249	0.034727	0.040831	0.047551	0.054858	0.062706	0.071029	0.079744	0.088752	0.097936	0.10717	0.11632	0.12523	0.13377	0.1418	0.14916	0.15575	0.16143	0.16612	0.16972	0.17218	0.17346	0.17354	0.17242	0.17014	0.16673	0.16227	0.15685	0.15057	0.14353	0.13587	0.12772	0.1192	0.11047	0.10163	0.092823	0.08416	0.075742	0.067662	0.059994	0.052799	0.046121	0.039989	0.034418	0.029408	0.024949	0.02102	0.017591	0.014628	0.012091	0.0099393	0.0081301	0.0066221	0.0053754	0.004353	0.0035207	0.0028478	0.0023071	0.0018747	0.0015301	0.001256	0.0010378	0.00086341	0.00072307	0.00060901	0.00051514	0.00043679	0.00037046	0.00031361	0.00026441	0.00022156	0.00018416	0.00015157	0.00012333	9.9055e-05	7.8419e-05	6.1109e-05	4.6812e-05	3.5207e-05	2.5964e-05	1.8753e-05	1.3249e-05	9.1469e-06	6.1638e-06	4.0501e-06	2.5925e-06	1.6151e-06	9.7854e-07	5.7608e-07	3.293e-07	1.8264e-07	9.8209e-08	5.1164e-08	2.5804e-08	1.2589e-08	5.9358e-09	2.7026e-09	1.1871e-09	5.0257e-10	2.0486e-10	8.032e-11	3.026e-11	1.0944e-11	3.7963e-12	1.2618e-12	4.0154e-13	1.2225e-13	3.5579e-14	9.8929e-15	2.6265e-15	6.6544e-16	1.6081e-16	3.7054e-17	8.1376e-18	1.7028e-18	3.394e-19	6.4428e-20	1.1646e-20	2.0042e-21	3.2838e-22	5.1224e-23	7.6073e-24	1.0757e-24	1.4486e-25	1.8581e-26	2.2706e-27	2.6443e-28	2.9359e-29	3.1088e-30	3.1411e-31	3.0298e-32
4.1085e-117	9.354e-118	2.293e-118	6.0581e-119	1.7269e-119	5.3158e-120	1.7687e-120	6.3664e-121	2.4809e-121	1.0474e-121	4.7939e-122	2.3801e-122	1.2826e-122	7.5047e-123	4.7701e-123	3.2948e-123	2.4737e-123	2.0193e-123	1.7923e-123	1.7301e-123	1.8162e-123	2.0733e-123	2.5736e-123	3.4733e-123	5.0951e-123	8.1244e-123	1.4109e-122	2.7145e-122	6.5044e-122	3.0385e-121	3.5379e-120	6.1466e-119	1.2012e-117	2.4993e-116	5.4825e-115	1.2637e-113	3.0536e-112	7.7175e-111	2.0355e-109	5.5896e-108	1.5946e-106	4.7156e-105	1.4436e-103	4.5873e-102	1.5454e-100	6.0486e-99	3.4566e-97	3.3042e-95	4.2455e-93	5.8848e-91	8.1076e-89	1.0845e-86	1.3977e-84	1.7293e-82	2.0483e-80	2.3173e-78	2.4987e-76	2.5623e-74	2.4938e-72	2.2991e-70	2.004e-68	1.6486e-66	1.2777e-64	9.3141e-63	6.3763e-61	4.0933e-59	2.4606e-57	1.3833e-55	7.2629e-54	3.5577e-52	1.6241e-50	6.9024e-49	2.7287e-47	1.0026e-45	3.421e-44	1.0834e-42	3.1827e-41	8.6681e-40	2.1879e-38	5.1161e-37	1.1081e-35	2.2225e-34	4.128e-33	7.0994e-32	1.1307e-30	1.6679e-29	2.2792e-28	2.8861e-27	3.3878e-26	3.6881e-25	3.7253e-24	3.4935e-23	3.0435e-22	2.4648e-21	1.8572e-20	1.3029e-19	8.5185e-19	5.1952e-18	2.9583e-17	1.5746e-16	7.8418e-16	3.6584e-15	1.6007e-14	6.5769e-14	2.5406e-13	9.2392e-13	3.1673e-12	1.025e-11	3.1353e-11	9.0787e-11	2.4922e-10	6.495e-10	1.6094e-09	3.7977e-09	8.5466e-09	1.8373e-08	3.7786e-08	7.447e-08	1.4088e-07	2.5622e-07	4.4882e-07	7.5855e-07	1.2393e-06	1.9611e-06	3.0123e-06	4.5018e-06	6.5627e-06	9.3589e-06	1.3098e-05	1.8053e-05	2.4599e-05	3.3265e-05	4.4819e-05	6.0368e-05	8.1505e-05	0.00011048	0.00015042	0.00020557	0.00028157	0.00038577	0.00052754	0.00071859	0.00097325	0.0013088	0.0017456	0.0023073	0.0030207	0.0039159	0.0050255	0.0063843	0.0080285	0.0099945	0.012318	0.015031	0.018162	0.021734	0.02576	0.030245	0.035183	0.040554	0.046325	0.052452	0.058875	0.065521	0.072308	0.079142	0.085924	0.092549	0.098908	0.1049	0.11041	0.11535	0.11964	0.12319	0.12594	0.12785	0.12888	0.12902	0.12827	0.12665	0.12419	0.12095	0.11699	0.11238	0.10721	0.10157	0.095563	0.08928	0.082824	0.076291	0.069773	0.063356	0.057116	0.051121	0.045425	0.040074	0.0351	0.030526	0.026363	0.022611	0.019264	0.016306	0.013717	0.011471	0.0095416	0.0078974	0.0065084	0.0053444	0.0043766	0.0035779	0.0029232	0.00239	0.0019581	0.0016097	0.0013295	0.0011043	0.00092295	0.00077634	0.00065692	0.00055864	0.00047674	0.00040756	0.00034834	0.00029706	0.00025226	0.0002129	0.00017827	0.00014786	0.0001213	9.8278e-05	7.854e-05	6.1834e-05	4.7899e-05	3.6467e-05	2.7255e-05	1.9976e-05	1.4342e-05	1.0076e-05	6.9214e-06	4.6436e-06	3.0402e-06	1.9407e-06	1.2068e-06	7.3052e-07	4.3009e-07	2.4608e-07	1.3672e-07	7.3699e-08	3.8511e-08	1.9491e-08	9.545e-09	4.5188e-09	2.0661e-09	9.1149e-10	3.876e-10	1.5872e-10	6.2533e-11	2.3682e-11	8.6133e-12	3.0064e-12	1.0062e-12	3.2271e-13	9.9113e-14	2.9133e-14	8.191e-15	2.2018e-15	5.6562e-16	1.388e-16	3.2527e-17	7.2769e-18	1.5538e-18	3.166e-19	6.1547e-20	1.1414e-20	2.0194e-21	3.408e-22	5.4867e-23	8.4274e-24	1.2351e-24	1.7275e-25	2.3066e-26	2.9406e-27	3.581e-28	4.1669e-29	4.6353e-30	4.9318e-31
2.5244e-112	6.1158e-113	1.5903e-113	4.4431e-114	1.335e-114	4.3178e-115	1.5046e-115	5.6528e-116	2.2917e-116	1.0032e-116	4.7445e-117	2.4259e-117	1.3416e-117	8.0284e-118	5.201e-118	3.6486e-118	2.7725e-118	2.2825e-118	2.0362e-118	1.9684e-118	2.0621e-118	2.341e-118	2.8797e-118	3.8377e-118	5.5399e-118	8.6612e-118	1.468e-117	2.7209e-117	5.8517e-117	1.9377e-116	1.5195e-115	2.1498e-114	3.6647e-113	6.7248e-112	1.3011e-110	2.6408e-109	5.6088e-108	1.2437e-106	2.8732e-105	6.8996e-104	1.7185e-102	4.4301e-101	1.1795e-99	3.2383e-98	9.1791e-97	2.7197e-95	8.8939e-94	3.7527e-92	2.4596e-90	2.3179e-88	2.5129e-86	2.7748e-84	2.9963e-82	3.1231e-80	3.1258e-78	2.9953e-76	2.7415e-74	2.3916e-72	1.9847e-70	1.5637e-68	1.1677e-66	8.249e-65	5.5042e-63	3.4634e-61	2.052e-59	1.1431e-57	5.9791e-56	2.9328e-54	1.3475e-52	5.7921e-51	2.327e-49	8.7293e-48	3.055e-46	9.9663e-45	3.0286e-43	8.5677e-42	2.2551e-40	5.5196e-39	1.2559e-37	2.6554e-36	5.2164e-35	9.5185e-34	1.6132e-32	2.5396e-31	3.7133e-30	5.044e-29	6.3662e-28	7.4678e-27	8.1446e-26	8.2619e-25	7.7989e-24	6.8543e-23	5.6122e-22	4.2838e-21	3.0504e-20	2.028e-19	1.2598e-18	7.3195e-18	3.9809e-17	2.0288e-16	9.6985e-16	4.3536e-15	1.8372e-14	7.2968e-14	2.7308e-13	9.6425e-13	3.2163e-12	1.0148e-11	3.0326e-11	8.5952e-11	2.3137e-10	5.9237e-10	1.4445e-09	3.3598e-09	7.4651e-09	1.5868e-08	3.2315e-08	6.3154e-08	1.1862e-07	2.1449e-07	3.7398e-07	6.2984e-07	1.0264e-06	1.6218e-06	2.4893e-06	3.7203e-06	5.4265e-06	7.7462e-06	1.0853e-05	1.4974e-05	2.0415e-05	2.7603e-05	3.7144e-05	4.9905e-05	6.7115e-05	9.05e-05	0.00012243	0.00016612	0.00022581	0.00030696	0.00041653	0.00056316	0.00075734	0.0010117	0.0013409	0.0017621	0.0022944	0.0029594	0.0037802	0.0047817	0.0059893	0.007429	0.0091258	0.011103	0.013381	0.015975	0.018897	0.02215	0.025729	0.029623	0.033809	0.038254	0.042918	0.04775	0.052689	0.057671	0.062623	0.067468	0.07213	0.076529	0.08059	0.084243	0.087422	0.09007	0.09214	0.093596	0.094413	0.09458	0.094096	0.092974	0.091239	0.088927	0.086083	0.082764	0.079029	0.074947	0.070588	0.066025	0.061329	0.056573	0.051823	0.04714	0.042582	0.038197	0.034025	0.0301	0.026445	0.023078	0.020007	0.017232	0.01475	0.012549	0.010616	0.0089334	0.0074807	0.0062371	0.005181	0.0042909	0.0035463	0.0029276	0.0024169	0.0019976	0.0016551	0.0013764	0.0011499	0.00096606	0.00081637	0.0006939	0.00059292	0.00050878	0.00043782	0.00037719	0.00032474	0.00027888	0.00023845	0.00020264	0.0001709	0.00014281	0.00011808	9.6492e-05	7.7829e-05	6.1892e-05	4.8472e-05	3.7348e-05	2.8282e-05	2.1028e-05	1.5335e-05	1.0959e-05	7.6683e-06	5.2486e-06	3.5109e-06	2.2934e-06	1.4616e-06	9.0805e-07	5.4949e-07	3.2358e-07	1.8528e-07	1.0305e-07	5.5632e-08	2.912e-08	1.4766e-08	7.2463e-09	3.4383e-09	1.576e-09	6.9712e-10	2.9734e-10	1.2218e-10	4.8326e-11	1.8385e-11	6.7227e-12	2.361e-12	7.9591e-13	2.5738e-13	7.9796e-14	2.3707e-14	6.7464e-15	1.8381e-15	4.7933e-16	1.1959e-16	2.8541e-17	6.5135e-18	1.4212e-18	2.9646e-19	5.911e-20	1.1265e-20	2.0519e-21	3.5726e-22	5.9459e-23	9.4609e-24	1.4395e-24	2.0947e-25	2.9162e-26	3.8853e-27	4.9556e-28	6.0539e-29	7.0865e-30
1.1624e-107	2.9934e-108	8.2489e-109	2.4348e-109	7.7046e-110	2.6161e-110	9.5394e-111	3.7384e-111	1.5757e-111	7.1473e-112	3.4911e-112	1.8373e-112	1.0424e-112	6.3773e-113	4.2094e-113	2.9984e-113	2.3055e-113	1.914e-113	1.7159e-113	1.6612e-113	1.7368e-113	1.961e-113	2.3908e-113	3.147e-113	4.4714e-113	6.857e-113	1.1354e-112	2.0388e-112	4.0908e-112	1.0729e-111	5.5375e-111	5.9517e-110	8.6878e-109	1.4031e-107	2.3972e-106	4.2926e-105	8.0297e-104	1.5655e-102	3.1744e-101	6.6805e-100	1.4561e-98	3.2799e-97	7.6193e-96	1.8217e-94	4.4755e-93	1.1297e-91	2.9492e-90	8.2019e-89	2.6675e-87	1.1992e-85	7.8896e-84	6.4795e-82	5.6736e-80	4.9391e-78	4.1723e-76	3.3901e-74	2.6388e-72	1.9626e-70	1.3917e-68	9.3923e-67	6.0216e-65	3.6614e-63	2.108e-61	1.1474e-59	5.8964e-58	2.8565e-56	1.3029e-54	5.5883e-53	2.2514e-51	8.51e-50	3.0151e-48	1.0004e-46	3.1055e-45	9.0135e-44	2.4442e-42	6.1884e-41	1.4622e-39	3.2225e-38	6.6219e-37	1.2684e-35	2.2639e-34	3.765e-33	5.8332e-32	8.4194e-31	1.1322e-29	1.4185e-28	1.6564e-27	1.8028e-26	1.8298e-25	1.7323e-24	1.5305e-23	1.2626e-22	9.7303e-22	7.0101e-21	4.7244e-20	2.9806e-19	1.7617e-18	9.764e-18	5.0787e-17	2.4815e-16	1.1401e-15	4.9303e-15	2.009e-14	7.7222e-14	2.8032e-13	9.6211e-13	3.1259e-12	9.6263e-12	2.8132e-11	7.8125e-11	2.0643e-10	5.1971e-10	1.2483e-09	2.8646e-09	6.2894e-09	1.323e-08	2.6704e-08	5.1792e-08	9.6674e-08	1.7393e-07	3.0209e-07	5.0737e-07	8.2547e-07	1.3033e-06	2.0008e-06	2.9928e-06	4.3721e-06	6.2535e-06	8.7814e-06	1.2143e-05	1.6587e-05	2.2457e-05	3.023e-05	4.058e-05	5.4452e-05	7.3157e-05	9.8484e-05	0.00013283	0.00017934	0.00024205	0.00032607	0.00043768	0.00058451	0.00077561	0.0010216	0.0013345	0.0017281	0.0022173	0.0028187	0.0035494	0.0044273	0.0054704	0.0066962	0.008121	0.0097588	0.011621	0.013715	0.016044	0.018605	0.02139	0.024384	0.027564	0.030902	0.034363	0.037906	0.041482	0.045043	0.048532	0.051896	0.055078	0.058023	0.06068	0.063002	0.064946	0.066479	0.067573	0.06821	0.068379	0.06808	0.067322	0.066121	0.064503	0.062499	0.06015	0.057498	0.054592	0.051483	0.048222	0.044862	0.041453	0.038044	0.034678	0.031397	0.028236	0.025224	0.022384	0.019735	0.017289	0.015052	0.013025	0.011206	0.0095878	0.0081608	0.006913	0.0058307	0.0048992	0.0041037	0.0034292	0.0028611	0.0023857	0.0019903	0.0016631	0.0013935	0.0011719	0.00099018	0.000841	0.00071818	0.0006165	0.00053165	0.0004601	0.00039905	0.00034631	0.00030021	0.00025953	0.00022337	0.00019109	0.00016227	0.00013658	0.00011381	9.3772e-05	7.6317e-05	6.1285e-05	4.8512e-05	3.7817e-05	2.9003e-05	2.1864e-05	1.6187e-05	1.1759e-05	8.3736e-06	5.8407e-06	3.9869e-06	2.661e-06	1.735e-06	1.1042e-06	6.8533e-07	4.1442e-07	2.4394e-07	1.3965e-07	7.7675e-08	4.1939e-08	2.1961e-08	1.1142e-08	5.472e-09	2.5992e-09	1.1931e-09	5.2875e-10	2.2607e-10	9.3182e-11	3.6999e-11	1.4142e-11	5.2005e-12	1.8387e-12	6.2472e-13	2.0386e-13	6.3863e-14	1.9198e-14	5.5358e-15	1.5306e-15	4.057e-16	1.0305e-16	2.508e-17	5.847e-18	1.3056e-18	2.7923e-19	5.7189e-20	1.1217e-20	2.107e-21	3.7906e-22	6.5323e-23	1.0785e-23	1.7063e-24	2.5875e-25	3.7622e-26	5.2467e-27	7.0209e-28	9.019e-29
4.0109e-103	1.0968e-103	3.1996e-104	9.9676e-105	3.3188e-105	1.182e-105	4.5069e-106	1.8409e-106	8.0615e-107	3.7868e-107	1.9092e-107	1.0337e-107	6.0135e-108	3.76e-108	2.5278e-108	1.8278e-108	1.4219e-108	1.1902e-108	1.0721e-108	1.0395e-108	1.0846e-108	1.2181e-108	1.4721e-108	1.9143e-108	2.678e-108	4.0297e-108	6.5227e-108	1.1384e-107	2.1745e-107	4.9314e-107	1.7714e-106	1.3393e-105	1.6115e-104	2.2733e-103	3.4303e-102	5.4282e-101	8.9614e-100	1.5394e-98	2.746e-97	5.0757e-96	9.7028e-95	1.9143e-93	3.8899e-92	8.1249e-91	1.7409e-89	3.8201e-88	8.5775e-87	1.9762e-85	4.7414e-84	1.2444e-82	4e-81	1.7757e-79	1.049e-77	7.0948e-76	4.9382e-74	3.3794e-72	2.2351e-70	1.4188e-68	8.6137e-67	4.9897e-65	2.7527e-63	1.4438e-61	7.1887e-60	3.3925e-58	1.5153e-56	6.398e-55	2.5502e-53	9.5851e-52	3.3932e-50	1.1302e-48	3.5388e-47	1.0406e-45	2.8713e-44	7.4289e-43	1.8011e-41	4.0892e-40	8.69e-39	1.7277e-37	3.2123e-36	5.5839e-35	9.0723e-34	1.3775e-32	1.9543e-31	2.5908e-30	3.2093e-29	3.7151e-28	4.0197e-27	4.066e-26	3.8462e-25	3.4035e-24	2.8187e-23	2.1857e-22	1.5878e-21	1.0812e-20	6.9054e-20	4.1398e-19	2.3312e-18	1.234e-17	6.1462e-17	2.8827e-16	1.2743e-15	5.3152e-15	2.0937e-14	7.7972e-14	2.7483e-13	9.1782e-13	2.9076e-12	8.7477e-12	2.5025e-11	6.8154e-11	1.7693e-10	4.3839e-10	1.0381e-09	2.3522e-09	5.1075e-09	1.0641e-08	2.1303e-08	4.1036e-08	7.6175e-08	1.3646e-07	2.3628e-07	3.9606e-07	6.4377e-07	1.0165e-06	1.562e-06	2.3406e-06	3.4277e-06	4.9173e-06	6.9281e-06	9.613e-06	1.3174e-05	1.7885e-05	2.4122e-05	3.2407e-05	4.3462e-05	5.8275e-05	7.8183e-05	0.00010496	0.00014092	0.00018901	0.00025294	0.00033723	0.00044734	0.00058974	0.00077191	0.0010024	0.0012907	0.0016475	0.0020839	0.0026119	0.0032438	0.003992	0.0048683	0.0058839	0.0070484	0.0083697	0.0098527	0.0115	0.013309	0.015275	0.017388	0.019632	0.021988	0.024432	0.026935	0.029465	0.031987	0.034462	0.036852	0.039118	0.041221	0.043124	0.044794	0.0462	0.047318	0.048127	0.048614	0.048771	0.048598	0.048098	0.047284	0.046173	0.044788	0.043154	0.041304	0.039271	0.03709	0.034798	0.032432	0.030027	0.027617	0.025235	0.022909	0.020662	0.018518	0.016492	0.014598	0.012843	0.011234	0.0097717	0.0084543	0.0072776	0.0062354	0.0053196	0.0045211	0.00383	0.0032361	0.0027292	0.0022993	0.0019369	0.001633	0.0013795	0.0011686	0.00099374	0.00084879	0.00072851	0.00062836	0.00054448	0.00047364	0.00041319	0.00036103	0.00031548	0.00027529	0.0002395	0.00020743	0.00017859	0.00015266	0.00012939	0.00010862	9.022e-05	7.4066e-05	6.0043e-05	4.802e-05	3.7855e-05	2.9388e-05	2.2449e-05	1.686e-05	1.2437e-05	9.0046e-06	6.3929e-06	4.4468e-06	3.0278e-06	2.0163e-06	1.312e-06	8.3343e-07	5.1639e-07	3.1178e-07	1.8327e-07	1.0478e-07	5.8219e-08	3.1406e-08	1.6435e-08	8.3354e-09	4.094e-09	1.9457e-09	8.9405e-10	3.9691e-10	1.7013e-10	7.0355e-11	2.8054e-11	1.078e-11	3.9893e-12	1.4211e-12	4.871e-13	1.6057e-13	5.0882e-14	1.5495e-14	4.533e-15	1.2736e-15	3.4357e-16	8.8969e-17	2.2112e-17	5.274e-18	1.207e-18	2.6506e-19	5.5848e-20	1.1291e-20	2.1905e-21	4.0786e-22	7.2893e-23	1.2507e-23	2.0609e-24	3.262e-25	4.9614e-26	7.2541e-27	1.02e-27
1.0373e-98	3.0086e-99	9.282e-100	3.0489e-100	1.0672e-100	3.9833e-101	1.5867e-101	6.7504e-102	3.069e-102	1.492e-102	7.7599e-103	4.3203e-103	2.5758e-103	1.6453e-103	1.1262e-103	8.2645e-104	6.5028e-104	5.4874e-104	4.9666e-104	4.8219e-104	5.0218e-104	5.6099e-104	6.7218e-104	8.6373e-104	1.19e-103	1.7577e-103	2.783e-103	4.7288e-103	8.6897e-103	1.7992e-102	4.9733e-102	2.5482e-101	2.3746e-100	2.8718e-99	3.8166e-98	5.3432e-97	7.8002e-96	1.1832e-94	1.8609e-93	3.0282e-92	5.0889e-91	8.8146e-90	1.5706e-88	2.8732e-87	5.3858e-86	1.0325e-84	2.0209e-83	4.033e-82	8.2119e-81	1.717e-79	3.7729e-78	9.2649e-77	2.8234e-75	1.1378e-73	5.6542e-72	3.0723e-70	1.6902e-68	9.0965e-67	4.7225e-65	2.3503e-63	1.1177e-61	5.0671e-60	2.1864e-58	8.9654e-57	3.4886e-55	1.2866e-53	4.4913e-52	1.4824e-50	4.6212e-49	1.3592e-47	3.7686e-46	9.8412e-45	2.4185e-43	5.5891e-42	1.2139e-40	2.4762e-39	4.7417e-38	8.52e-37	1.4359e-35	2.2693e-34	3.362e-33	4.6685e-32	6.0755e-31	7.4096e-30	8.4689e-29	9.0723e-28	9.11e-27	8.577e-26	7.5731e-25	6.273e-24	4.8766e-23	3.5595e-22	2.4406e-21	1.5728e-20	9.5328e-20	5.4373e-19	2.9206e-18	1.4785e-17	7.0592e-17	3.1817e-16	1.3549e-15	5.4561e-15	2.0798e-14	7.5118e-14	2.5733e-13	8.3701e-13	2.5878e-12	7.6132e-12	2.1338e-11	5.7039e-11	1.456e-10	3.5534e-10	8.3014e-10	1.8588e-09	3.9945e-09	8.2486e-09	1.639e-08	3.138e-08	5.7969e-08	1.0348e-07	1.7874e-07	2.9923e-07	4.8629e-07	7.6845e-07	1.1829e-06	1.7773e-06	2.6115e-06	3.7615e-06	5.3231e-06	7.4202e-06	1.0215e-05	1.3926e-05	1.8847e-05	2.5381e-05	3.4077e-05	4.5676e-05	6.117e-05	8.1863e-05	0.00010944	0.00014603	0.00019428	0.00025744	0.00033937	0.00044461	0.00057843	0.00074674	0.00095618	0.001214	0.0015278	0.0019059	0.0023565	0.0028879	0.0035082	0.0042247	0.005044	0.0059711	0.0070097	0.0081609	0.0094238	0.010795	0.012266	0.013829	0.015469	0.017171	0.018915	0.020679	0.022439	0.024169	0.025843	0.027432	0.028911	0.030253	0.031436	0.032437	0.03324	0.03383	0.034196	0.034334	0.034241	0.033922	0.033382	0.032635	0.031694	0.030579	0.029311	0.027913	0.026409	0.024824	0.023185	0.021515	0.019839	0.018178	0.016552	0.014979	0.013474	0.012048	0.010711	0.0094688	0.0083256	0.0072826	0.0063391	0.0054927	0.0047392	0.0040736	0.0034899	0.0029816	0.002542	0.0021642	0.0018414	0.0015672	0.0013353	0.0011402	0.0009764	0.00083923	0.00072435	0.00062798	0.00054683	0.00047805	0.00041928	0.00036855	0.00032429	0.00028524	0.00025045	0.00021922	0.00019101	0.00016547	0.00014234	0.00012146	0.0001027	8.5959e-05	7.116e-05	5.8212e-05	4.7015e-05	3.746e-05	2.942e-05	2.2755e-05	1.732e-05	1.2962e-05	9.5302e-06	6.8777e-06	4.8677e-06	3.3758e-06	2.2919e-06	1.5219e-06	9.8761e-07	6.2572e-07	3.867e-07	2.3291e-07	1.3659e-07	7.7932e-08	4.322e-08	2.3279e-08	1.2168e-08	6.167e-09	3.0285e-09	1.44e-09	6.6252e-10	2.9473e-10	1.267e-10	5.2601e-11	2.1079e-11	8.149e-12	3.0378e-12	1.0915e-12	3.7782e-13	1.2595e-13	4.0423e-14	1.2486e-14	3.7106e-15	1.0608e-15	2.9165e-16	7.7104e-17	1.9598e-17	4.7891e-18	1.125e-18	2.5406e-19	5.5154e-20	1.1512e-20	2.3102e-21	4.4587e-22	8.2769e-23	1.4783e-23	2.5408e-24	4.2042e-25	6.6994e-26	1.0285e-26
2.0119e-94	6.182e-95	2.0148e-95	6.971e-96	2.5624e-96	1.0014e-96	4.1643e-97	1.8437e-97	8.6962e-98	4.3723e-98	2.3445e-98	1.3415e-98	8.1935e-99	5.3441e-99	3.7235e-99	2.7721e-99	2.2058e-99	1.8761e-99	1.706e-99	1.6586e-99	1.724e-99	1.916e-99	2.2765e-99	2.8912e-99	3.9243e-99	5.6915e-99	8.8192e-99	1.4608e-98	2.5966e-98	5.0566e-98	1.1806e-97	4.2533e-97	2.8596e-96	2.8546e-95	3.311e-94	4.0986e-93	5.2995e-92	7.1139e-91	9.8871e-90	1.4198e-88	2.1026e-87	3.2052e-86	5.0203e-85	8.064e-84	1.3259e-82	2.2274e-81	3.8159e-80	6.6554e-79	1.18e-77	2.1254e-76	3.8979e-75	7.3493e-74	1.4653e-72	3.2845e-71	8.9864e-70	3.0885e-68	1.2462e-66	5.3769e-65	2.3342e-63	9.9006e-62	4.0497e-60	1.5876e-58	5.9451e-57	2.1221e-55	7.2082e-54	2.3268e-52	7.1289e-51	2.0707e-49	5.6963e-48	1.4826e-46	3.6477e-45	8.4763e-44	1.8589e-42	3.8447e-41	7.4947e-40	1.3762e-38	2.3791e-37	3.8705e-36	5.9237e-35	8.5261e-34	1.1538e-32	1.4677e-31	1.755e-30	1.9723e-29	2.0832e-28	2.0683e-27	1.9304e-26	1.6941e-25	1.3982e-24	1.0857e-23	7.9332e-23	5.4578e-22	3.5367e-21	2.1598e-20	1.2437e-19	6.7572e-19	3.4662e-18	1.6798e-17	7.6973e-17	3.3374e-16	1.3704e-15	5.3335e-15	1.9693e-14	6.9044e-14	2.3009e-13	7.2954e-13	2.2031e-12	6.343e-12	1.7431e-11	4.577e-11	1.1496e-10	2.7655e-10	6.3787e-10	1.4124e-09	3.0058e-09	6.1561e-09	1.2149e-08	2.3133e-08	4.2558e-08	7.5745e-08	1.3062e-07	2.1855e-07	3.5537e-07	5.6248e-07	8.6813e-07	1.3089e-06	1.9317e-06	2.7963e-06	3.9792e-06	5.5792e-06	7.7257e-06	1.059e-05	1.4403e-05	1.9473e-05	2.6215e-05	3.5184e-05	4.7109e-05	6.2941e-05	8.3894e-05	0.0001115	0.00014763	0.00019458	0.00025505	0.00033222	0.00042972	0.00055163	0.00070249	0.00088719	0.001111	0.0013793	0.0016977	0.0020717	0.0025066	0.0030072	0.0035779	0.0042219	0.0049414	0.0057373	0.0066088	0.0075533	0.0085662	0.0096409	0.010769	0.011938	0.013137	0.01435	0.015562	0.016754	0.017909	0.019007	0.020032	0.020965	0.021791	0.022494	0.023062	0.023486	0.023757	0.023873	0.02383	0.023632	0.023283	0.022791	0.022165	0.021418	0.020564	0.019619	0.018599	0.017521	0.016404	0.015263	0.014114	0.012974	0.011854	0.010768	0.0097261	0.0087358	0.007804	0.0069352	0.0061324	0.0053968	0.0047283	0.0041255	0.003586	0.0031067	0.0026837	0.002313	0.0019902	0.0017107	0.0014701	0.0012641	0.0010884	0.00093923	0.00081285	0.00070594	0.00061547	0.00053873	0.00047337	0.00041732	0.00036887	0.00032658	0.00028927	0.00025603	0.00022615	0.00019909	0.00017448	0.00015204	0.00013159	0.00011301	9.6211e-05	8.1126e-05	6.7695e-05	5.5855e-05	4.5533e-05	3.6645e-05	2.9092e-05	2.2765e-05	1.7545e-05	1.3306e-05	9.9223e-06	7.2689e-06	5.227e-06	3.6862e-06	2.5472e-06	1.7231e-06	1.1402e-06	7.3729e-07	4.6552e-07	2.8674e-07	1.7216e-07	1.0067e-07	5.729e-08	3.1702e-08	1.7045e-08	8.8982e-09	4.5071e-09	2.2136e-09	1.0535e-09	4.855e-10	2.1655e-10	9.3434e-11	3.8975e-11	1.571e-11	6.1167e-12	2.2993e-12	8.3415e-13	2.9195e-13	9.8549e-14	3.2073e-14	1.0061e-14	3.0417e-15	8.8599e-16	2.4861e-16	6.7197e-17	1.7493e-17	4.3861e-18	1.0591e-18	2.4633e-19	5.5183e-20	1.1909e-20	2.476e-21	4.9607e-22	9.5799e-23	1.7836e-23	3.2028e-24	5.5483e-25	9.2766e-26
2.9286e-90	9.5224e-91	3.2749e-91	1.1922e-91	4.5977e-92	1.8797e-92	8.1522e-93	3.7531e-93	1.8352e-93	9.5362e-94	5.2687e-94	3.0964e-94	1.9365e-94	1.2892e-94	9.1396e-95	6.9013e-95	5.5518e-95	4.759e-95	4.3472e-95	4.2321e-95	4.391e-95	4.8553e-95	5.7212e-95	7.1832e-95	9.6081e-95	1.3689e-94	2.0768e-94	3.3563e-94	5.7888e-94	1.0768e-93	2.2615e-93	6.2601e-93	2.9321e-92	2.2751e-91	2.2535e-90	2.4557e-89	2.814e-88	3.3492e-87	4.1229e-86	5.2371e-85	6.8515e-84	9.2153e-83	1.272e-81	1.7986e-80	2.6007e-79	3.8387e-78	5.7734e-77	8.832e-76	1.3719e-74	2.1605e-73	3.4455e-72	5.5647e-71	9.1321e-70	1.54e-68	2.7435e-67	5.4392e-66	1.2747e-64	3.588e-63	1.1515e-61	3.9173e-60	1.3413e-58	4.4959e-57	1.4553e-55	4.5184e-54	1.3408e-52	3.7939e-51	1.022e-49	2.6175e-48	6.3669e-47	1.4693e-45	3.2143e-44	6.6599e-43	1.306e-41	2.4221e-40	4.2458e-39	7.0309e-38	1.0993e-36	1.6223e-35	2.2585e-34	2.9657e-33	3.672e-32	4.2863e-31	4.7165e-30	4.8918e-29	4.7823e-28	4.4071e-27	3.8288e-26	3.1364e-25	2.423e-24	1.7659e-23	1.2145e-22	7.8852e-22	4.835e-21	2.8013e-20	1.5344e-19	7.9496e-19	3.8983e-18	1.8106e-17	7.97e-17	3.3276e-16	1.3187e-15	4.9648e-15	1.7771e-14	6.0535e-14	1.964e-13	6.0751e-13	1.7933e-12	5.0565e-12	1.3634e-11	3.5189e-11	8.7033e-11	2.065e-10	4.7053e-10	1.0309e-09	2.1741e-09	4.419e-09	8.6671e-09	1.6424e-08	3.0108e-08	5.3469e-08	9.2111e-08	1.5416e-07	2.5101e-07	3.983e-07	6.1692e-07	9.3437e-07	1.3864e-06	2.0193e-06	2.8928e-06	4.0847e-06	5.6967e-06	7.8628e-06	1.0761e-05	1.4627e-05	1.9774e-05	2.6612e-05	3.5677e-05	4.7657e-05	6.3422e-05	8.4055e-05	0.00011088	0.00014549	0.00018978	0.00024591	0.00031638	0.00040397	0.00051175	0.000643	0.00080123	0.00099005	0.0012131	0.001474	0.0017763	0.0021229	0.0025167	0.0029597	0.0034533	0.003998	0.0045931	0.005237	0.0059264	0.0066571	0.0074231	0.0082173	0.0090312	0.009855	0.010678	0.011489	0.012275	0.013024	0.013725	0.014365	0.014933	0.01542	0.015817	0.016118	0.016316	0.016409	0.016397	0.016279	0.016059	0.015741	0.015333	0.014842	0.014277	0.01365	0.01297	0.012249	0.0115	0.010732	0.009957	0.009185	0.0084251	0.0076856	0.0069733	0.0062941	0.0056524	0.0050517	0.0044941	0.0039807	0.0035117	0.0030864	0.0027036	0.0023613	0.0020574	0.0017891	0.0015538	0.0013486	0.0011705	0.0010168	0.00088458	0.00077128	0.00067438	0.00059157	0.00052075	0.00046002	0.00040769	0.0003623	0.0003226	0.00028756	0.00025632	0.00022822	0.00020272	0.00017946	0.00015814	0.00013858	0.00012065	0.00010425	8.9334e-05	7.5855e-05	6.3773e-05	5.3046e-05	4.362e-05	3.5434e-05	2.8414e-05	2.2473e-05	1.7519e-05	1.3448e-05	1.0159e-05	7.5443e-06	5.5039e-06	3.941e-06	2.7673e-06	1.904e-06	1.2825e-06	8.4498e-07	5.4412e-07	3.4217e-07	2.0997e-07	1.2562e-07	7.3228e-08	4.1558e-08	2.2945e-08	1.2317e-08	6.4239e-09	3.2532e-09	1.5987e-09	7.6197e-10	3.5203e-10	1.5757e-10	6.8294e-11	2.8651e-11	1.1629e-11	4.5649e-12	1.7323e-12	6.3533e-13	2.2511e-13	7.704e-14	2.5459e-14	8.1223e-15	2.5012e-15	7.4336e-16	2.1319e-16	5.8998e-17	1.5754e-17	4.0587e-18	1.009e-18	2.4204e-19	5.6036e-20	1.2522e-20	2.7012e-21	5.6267e-22	1.1321e-22	2.2005e-23	4.1339e-24	7.5084e-25
3.2029e-86	1.1007e-86	3.9898e-87	1.5266e-87	6.1704e-88	2.6364e-88	1.1915e-88	5.699e-89	2.8867e-89	1.5492e-89	8.8136e-90	5.3173e-90	3.4033e-90	2.3116e-90	1.6668e-90	1.2762e-90	1.0377e-90	8.963e-91	8.2241e-91	8.017e-91	8.3029e-91	9.1355e-91	1.0678e-90	1.3257e-90	1.748e-90	2.4472e-90	3.6372e-90	5.7389e-90	9.6225e-90	1.7236e-89	3.3752e-89	7.8563e-89	2.653e-88	1.5027e-87	1.2191e-86	1.1547e-85	1.1703e-84	1.2365e-83	1.3511e-82	1.5218e-81	1.7632e-80	2.0977e-79	2.5583e-78	3.1929e-77	4.071e-76	5.2937e-75	7.0086e-74	9.4314e-73	1.2878e-71	1.7813e-70	2.4921e-69	3.5215e-68	5.0216e-67	7.2299e-66	1.0548e-64	1.5758e-63	2.4669e-62	4.2098e-61	8.1827e-60	1.8391e-58	4.6264e-57	1.2331e-55	3.3261e-54	8.8283e-53	2.271e-51	5.6164e-50	1.3295e-48	3.0045e-47	6.4704e-46	1.3261e-44	2.584e-43	4.7826e-42	8.4014e-41	1.3998e-39	2.2106e-38	3.3073e-37	4.6854e-36	6.2824e-35	7.9701e-34	9.5639e-33	1.0852e-31	1.1643e-30	1.1808e-29	1.132e-28	1.0257e-27	8.7864e-27	7.1151e-26	5.4478e-25	3.9447e-24	2.7018e-23	1.751e-22	1.0742e-21	6.2395e-21	3.4335e-20	1.7907e-19	8.8565e-19	4.1561e-18	1.8517e-17	7.8374e-17	3.1537e-16	1.2073e-15	4.4003e-15	1.5282e-14	5.0612e-14	1.5999e-13	4.8311e-13	1.3949e-12	3.8546e-12	1.0204e-11	2.5904e-11	6.3124e-11	1.4781e-10	3.3294e-10	7.2218e-10	1.5102e-09	3.0483e-09	5.9456e-09	1.122e-08	2.0512e-08	3.6374e-08	6.2652e-08	1.0497e-07	1.7132e-07	2.7281e-07	4.2451e-07	6.4661e-07	9.658e-07	1.4171e-06	2.0463e-06	2.9136e-06	4.0975e-06	5.7017e-06	7.8623e-06	1.0758e-05	1.4623e-05	1.9761e-05	2.6561e-05	3.5518e-05	4.7251e-05	6.2522e-05	8.2256e-05	0.00010756	0.00013971	0.00018021	0.00023075	0.00029318	0.00036957	0.0004621	0.00057308	0.00070487	0.00085988	0.0010404	0.0012487	0.0014867	0.0017561	0.0020582	0.0023938	0.0027631	0.0031657	0.0036003	0.0040649	0.0045566	0.0050715	0.0056049	0.0061513	0.0067043	0.0072569	0.0078016	0.0083305	0.0088356	0.0093088	0.0097424	0.010129	0.010463	0.010737	0.010947	0.011091	0.011164	0.011168	0.011101	0.010967	0.010767	0.010506	0.01019	0.0098231	0.0094136	0.008968	0.0084939	0.0079987	0.0074899	0.0069746	0.0064593	0.0059504	0.0054531	0.0049723	0.0045119	0.004075	0.003664	0.0032806	0.0029256	0.0025995	0.0023021	0.0020327	0.0017902	0.0015734	0.0013807	0.0012104	0.0010607	0.00092985	0.00081589	0.00071704	0.00063154	0.0005577	0.00049396	0.00043886	0.00039107	0.00034942	0.00031287	0.00028054	0.00025168	0.00022569	0.00020207	0.00018047	0.0001606	0.00014227	0.00012534	0.00010973	9.5365e-05	8.2224e-05	7.0276e-05	5.9497e-05	4.986e-05	4.1329e-05	3.3862e-05	2.7402e-05	2.1885e-05	1.7237e-05	1.3378e-05	1.0224e-05	7.6869e-06	5.6815e-06	4.1246e-06	2.9388e-06	2.0533e-06	1.4057e-06	9.4222e-07	6.1784e-07	3.9604e-07	2.4798e-07	1.5156e-07	9.0356e-08	5.2508e-08	2.9724e-08	1.6381e-08	8.7827e-09	4.5787e-09	2.3198e-09	1.1415e-09	5.4533e-10	2.5279e-10	1.1365e-10	4.9535e-11	2.0923e-11	8.5608e-12	3.392e-12	1.3011e-12	4.8299e-13	1.7348e-13	6.027e-14	2.0251e-14	6.5796e-15	2.0668e-15	6.2762e-16	1.8423e-16	5.2275e-17	1.4338e-17	3.8013e-18	9.7427e-19	2.4142e-19	5.7845e-20	1.3404e-20	3.0046e-21	6.5165e-22	1.3679e-22	2.7798e-23	5.4712e-24
2.6353e-82	9.5598e-83	3.6481e-83	1.4655e-83	6.2017e-84	2.7664e-84	1.3016e-84	6.463e-85	3.3886e-85	1.8769e-85	1.0987e-85	6.8008e-86	4.4524e-86	3.0842e-86	2.2611e-86	1.7548e-86	1.4419e-86	1.2547e-86	1.1563e-86	1.1286e-86	1.1668e-86	1.2776e-86	1.4816e-86	1.8193e-86	2.3654e-86	3.2556e-86	4.7423e-86	7.3104e-86	1.1931e-85	2.0672e-85	3.8465e-85	8.0224e-85	2.1218e-84	8.5875e-84	5.3766e-83	4.3038e-82	3.828e-81	3.588e-80	3.4854e-79	3.4889e-78	3.589e-77	3.7868e-76	4.0913e-75	4.5189e-74	5.0943e-73	5.852e-72	6.8392e-71	8.1184e-70	9.7727e-69	1.1911e-67	1.4674e-66	1.8246e-65	2.2865e-64	2.8843e-63	3.6599e-62	4.6739e-61	6.0258e-60	7.9073e-59	1.0739e-57	1.551e-56	2.4586e-55	4.3517e-54	8.4863e-53	1.7578e-51	3.7201e-50	7.8173e-49	1.6026e-47	3.1725e-46	6.0296e-45	1.0964e-43	1.9033e-42	3.1496e-41	4.9625e-40	7.4386e-39	1.06e-37	1.4351e-36	1.8451e-35	2.2517e-34	2.6072e-33	2.8636e-32	2.9825e-31	2.9452e-30	2.7571e-29	2.4466e-28	2.0578e-27	1.6407e-26	1.2401e-25	8.886e-25	6.038e-24	3.8913e-23	2.3792e-22	1.3805e-21	7.605e-21	3.9788e-20	1.9779e-19	9.3468e-19	4.2012e-18	1.7971e-17	7.3199e-17	2.8411e-16	1.0514e-15	3.7128e-15	1.2519e-14	4.0341e-14	1.2432e-13	3.6674e-13	1.0364e-12	2.8084e-12	7.3038e-12	1.8247e-11	4.3837e-11	1.0137e-10	2.2584e-10	4.8532e-10	1.007e-09	2.02e-09	3.9211e-09	7.3751e-09	1.3457e-08	2.3852e-08	4.112e-08	6.9047e-08	1.1309e-07	1.8094e-07	2.8324e-07	4.3447e-07	6.5412e-07	9.682e-07	1.4112e-06	2.0286e-06	2.8804e-06	4.0453e-06	5.6265e-06	7.7581e-06	1.0614e-05	1.4416e-05	1.9446e-05	2.6059e-05	3.4691e-05	4.5875e-05	6.0252e-05	7.8576e-05	0.00010173	0.00013071	0.00016665	0.00021081	0.00026452	0.00032924	0.00040648	0.00049776	0.00060463	0.00072857	0.00087097	0.0010331	0.0012159	0.0014203	0.0016467	0.001895	0.0021651	0.002456	0.0027664	0.0030943	0.0034372	0.0037921	0.0041554	0.004523	0.0048904	0.0052528	0.005605	0.0059419	0.0062583	0.0065491	0.0068097	0.0070357	0.0072234	0.0073697	0.0074723	0.0075295	0.0075407	0.0075061	0.0074267	0.0073044	0.0071415	0.0069415	0.0067081	0.0064455	0.0061583	0.0058512	0.0055291	0.0051967	0.0048586	0.0045192	0.0041825	0.0038521	0.0035312	0.0032223	0.0029278	0.0026493	0.002388	0.0021447	0.0019199	0.0017135	0.0015253	0.0013547	0.0012012	0.0010637	0.0009413	0.00083288	0.00073729	0.00065336	0.00057991	0.00051579	0.00045987	0.00041109	0.00036846	0.00033108	0.00029811	0.00026884	0.00024265	0.00021902	0.00019751	0.00017779	0.00015959	0.00014273	0.00012707	0.00011251	9.9006e-05	8.6514e-05	7.5018e-05	6.4504e-05	5.4961e-05	4.6373e-05	3.8719e-05	3.1968e-05	2.6083e-05	2.1014e-05	1.6705e-05	1.3093e-05	1.0111e-05	7.6866e-06	5.7483e-06	4.2254e-06	3.0505e-06	2.1614e-06	1.5019e-06	1.0226e-06	6.8187e-07	4.4489e-07	2.8384e-07	1.7696e-07	1.0774e-07	6.402e-08	3.7102e-08	2.096e-08	1.1535e-08	6.1816e-09	3.2237e-09	1.6353e-09	8.0651e-10	3.8655e-10	1.7996e-10	8.1355e-11	3.5698e-11	1.5198e-11	6.2763e-12	2.5133e-12	9.7566e-13	3.6707e-13	1.3382e-13	4.7263e-14	1.6169e-14	5.3573e-15	1.719e-15	5.3413e-16	1.6071e-16	4.6823e-17	1.321e-17	3.6094e-18	9.5513e-19	2.4483e-19	6.08e-20	1.4631e-20	3.4126e-21	7.7168e-22	1.6923e-22	3.6005e-23
1.6338e-78	6.2486e-79	2.5073e-79	1.0563e-79	4.6749e-80	2.175e-80	1.0644e-80	5.4818e-81	2.9726e-81	1.698e-81	1.0222e-81	6.4873e-82	4.3421e-82	3.066e-82	2.2844e-82	1.7965e-82	1.4914e-82	1.3072e-82	1.2099e-82	1.1824e-82	1.2203e-82	1.3299e-82	1.5303e-82	1.8591e-82	2.3842e-82	3.2272e-82	4.6095e-82	6.9464e-82	1.1046e-81	1.856e-81	3.3146e-81	6.4273e-81	1.4468e-80	4.3731e-80	2.0111e-79	1.297e-78	9.9297e-78	8.2149e-77	7.095e-76	6.3232e-75	5.7888e-74	5.4309e-73	5.212e-72	5.1086e-71	5.1059e-70	5.196e-69	5.3754e-68	5.6447e-67	6.0075e-66	6.4701e-65	7.0408e-64	7.7301e-63	8.5497e-62	9.5124e-61	1.0632e-59	1.1926e-58	1.3414e-57	1.5135e-56	1.7165e-55	1.9673e-54	2.3027e-53	2.7996e-52	3.6114e-51	5.0266e-50	7.5577e-49	1.2059e-47	1.9863e-46	3.289e-45	5.3685e-44	8.5267e-43	1.3073e-41	1.9251e-40	2.7147e-39	3.6581e-38	4.7042e-37	5.7673e-36	6.7356e-35	7.4895e-34	7.925e-33	7.9773e-32	7.6366e-31	6.9506e-30	6.0141e-29	4.9463e-28	3.8667e-27	2.8731e-26	2.0293e-25	1.3625e-24	8.6979e-24	5.2803e-23	3.0491e-22	1.6752e-21	8.7601e-21	4.3615e-20	2.0685e-19	9.348e-19	4.0279e-18	1.6555e-17	6.4946e-17	2.4332e-16	8.7114e-16	2.9824e-15	9.7707e-15	3.0653e-14	9.2157e-14	2.6573e-13	7.3548e-13	1.9556e-12	4.9995e-12	1.23e-11	2.9151e-11	6.6613e-11	1.4691e-10	3.1302e-10	6.4503e-10	1.2869e-09	2.4888e-09	4.6706e-09	8.5163e-09	1.5106e-08	2.6101e-08	4.399e-08	7.2413e-08	1.1659e-07	1.8389e-07	2.8451e-07	4.3243e-07	6.466e-07	9.5247e-07	1.384e-06	1.986e-06	2.8175e-06	3.9555e-06	5.4996e-06	7.5772e-06	1.035e-05	1.4021e-05	1.8842e-05	2.5118e-05	3.322e-05	4.3588e-05	5.6736e-05	7.3256e-05	9.3821e-05	0.00011918	0.00015016	0.00018764	0.00023257	0.00028591	0.00034867	0.0004218	0.00050626	0.00060291	0.00071253	0.00083574	0.000973	0.0011246	0.0012904	0.0014703	0.0016636	0.0018694	0.0020864	0.0023131	0.0025475	0.0027872	0.0030297	0.003272	0.0035112	0.0037439	0.0039668	0.0041767	0.0043703	0.0045446	0.0046968	0.0048245	0.0049256	0.0049986	0.0050425	0.0050566	0.0050411	0.0049965	0.0049238	0.0048246	0.0047009	0.004555	0.0043895	0.0042074	0.0040114	0.0038048	0.0035906	0.0033716	0.0031507	0.0029304	0.0027132	0.0025011	0.002296	0.0020992	0.0019121	0.0017354	0.00157	0.001416	0.0012738	0.0011432	0.0010241	0.00091606	0.00081862	0.0007312	0.00065316	0.0005838	0.00052237	0.00046813	0.00042033	0.00037822	0.0003411	0.0003083	0.0002792	0.00025323	0.00022991	0.0002088	0.00018954	0.00017184	0.00015545	0.00014021	0.00012598	0.00011267	0.00010023	8.8618e-05	7.782e-05	6.7829e-05	5.864e-05	5.0252e-05	4.2659e-05	3.5848e-05	2.9801e-05	2.4492e-05	1.9885e-05	1.5938e-05	1.2601e-05	9.8217e-06	7.5407e-06	5.6987e-06	4.2361e-06	3.095e-06	2.221e-06	1.5644e-06	1.0807e-06	7.3177e-07	4.8535e-07	3.151e-07	2.0013e-07	1.2427e-07	7.5401e-08	4.4676e-08	2.5836e-08	1.4575e-08	8.0167e-09	4.2972e-09	2.2437e-09	1.1407e-09	5.6439e-10	2.7167e-10	1.2717e-10	5.7873e-11	2.5595e-11	1.0997e-11	4.5893e-12	1.8597e-12	7.3158e-13	2.7933e-13	1.035e-13	3.7211e-14	1.2979e-14	4.3917e-15	1.4415e-15	4.5895e-16	1.4174e-16	4.2464e-17	1.2342e-17	3.48e-18	9.5216e-19	2.5283e-19	6.5166e-20	1.6308e-20	3.9632e-21	9.3565e-22	2.1465e-22
7.6471e-75	3.0794e-75	1.2977e-75	5.7264e-76	2.6478e-76	1.2835e-76	6.5269e-77	3.4833e-77	1.952e-77	1.1491e-77	7.1085e-78	4.623e-78	3.1617e-78	2.2746e-78	1.7218e-78	1.3717e-78	1.1502e-78	1.0153e-78	9.4359e-79	9.2332e-79	9.5128e-79	1.0319e-78	1.1785e-78	1.4168e-78	1.7929e-78	2.3877e-78	3.3456e-78	4.9316e-78	7.6472e-78	1.2482e-77	2.151e-77	3.9555e-77	8.03e-77	1.9649e-76	6.6535e-76	3.2714e-75	2.0769e-74	1.4952e-73	1.1442e-72	9.0834e-72	7.4151e-71	6.2008e-70	5.3e-69	4.6226e-68	4.1077e-67	3.7135e-66	3.4105e-65	3.1773e-64	2.9983e-63	2.8618e-62	2.759e-61	2.6826e-60	2.627e-59	2.5873e-58	2.5592e-57	2.5389e-56	2.5233e-55	2.5094e-54	2.4955e-53	2.4812e-52	2.4692e-51	2.4664e-50	2.487e-49	2.5553e-48	2.7092e-47	3.0022e-46	3.5038e-45	4.2948e-44	5.4562e-43	7.051e-42	9.1011e-41	1.1562e-39	1.4306e-38	1.7117e-37	1.9712e-36	2.1783e-35	2.3049e-34	2.3321e-33	2.2539e-32	2.0794e-31	1.8303e-30	1.5364e-29	1.2297e-28	9.3824e-28	6.8233e-27	4.7295e-26	3.1246e-25	1.9677e-24	1.1813e-23	6.7616e-23	3.6909e-22	1.9219e-21	9.5486e-21	4.5282e-20	2.0505e-19	8.8693e-19	3.6663e-18	1.4491e-17	5.479e-17	1.9829e-16	6.8726e-16	2.2828e-15	7.271e-15	2.2224e-14	6.5228e-14	1.8398e-13	4.9907e-13	1.303e-12	3.2773e-12	7.9474e-12	1.8598e-11	4.2036e-11	9.1864e-11	1.9429e-10	3.9809e-10	7.9107e-10	1.5263e-09	2.8623e-09	5.224e-09	9.2898e-09	1.6117e-08	2.7313e-08	4.5273e-08	7.3494e-08	1.17e-07	1.8287e-07	2.8101e-07	4.25e-07	6.3335e-07	9.309e-07	1.3507e-06	1.9364e-06	2.7445e-06	3.8479e-06	5.3394e-06	7.3353e-06	9.9804e-06	1.3451e-05	1.7963e-05	2.3769e-05	3.117e-05	4.0514e-05	5.2197e-05	6.6666e-05	8.4414e-05	0.00010598	0.00013194	0.00016289	0.00019947	0.00024231	0.000292	0.00034916	0.00041432	0.00048794	0.00057042	0.000662	0.00076283	0.00087287	0.00099191	0.0011196	0.0012552	0.0013981	0.001547	0.0017009	0.0018581	0.0020172	0.0021761	0.0023331	0.002486	0.0026328	0.0027713	0.0028996	0.0030157	0.0031178	0.0032044	0.0032742	0.0033261	0.0033595	0.0033738	0.0033692	0.0033458	0.0033043	0.0032455	0.0031707	0.0030813	0.0029789	0.0028651	0.0027419	0.0026112	0.0024748	0.0023346	0.0021923	0.0020497	0.0019083	0.0017693	0.0016342	0.0015038	0.0013789	0.0012604	0.0011486	0.0010439	0.00094658	0.00085658	0.00077389	0.00069835	0.00062971	0.00056768	0.00051185	0.00046183	0.00041714	0.00037733	0.00034189	0.00031036	0.00028225	0.00025713	0.00023458	0.00021422	0.00019572	0.00017877	0.00016314	0.00014863	0.00013507	0.00012236	0.00011041	9.9163e-05	8.8584e-05	7.8657e-05	6.9377e-05	6.0747e-05	5.277e-05	4.545e-05	3.8787e-05	3.2778e-05	2.7412e-05	2.2671e-05	1.8531e-05	1.4959e-05	1.1919e-05	9.3662e-06	7.2543e-06	5.5341e-06	4.1553e-06	3.0689e-06	2.228e-06	1.5888e-06	1.1123e-06	7.6396e-07	5.1447e-07	3.3949e-07	2.1939e-07	1.3877e-07	8.5866e-08	5.1948e-08	3.0713e-08	1.7737e-08	9.9999e-09	5.5019e-09	2.9528e-09	1.5452e-09	7.8809e-10	3.9162e-10	1.8954e-10	8.9314e-11	4.0965e-11	1.8283e-11	7.9377e-12	3.3518e-12	1.3762e-12	5.4937e-13	2.1316e-13	8.0388e-14	2.9461e-14	1.0492e-14	3.6305e-15	1.2207e-15	3.988e-16	1.266e-16	3.9056e-17	1.1709e-17	3.4122e-18	9.6662e-19	2.6625e-19	7.132e-20	1.8584e-20	4.7121e-21	1.1629e-21
2.7077e-71	1.1465e-71	5.0679e-72	2.3398e-72	1.129e-72	5.6965e-73	3.0071e-73	1.6616e-73	9.6142e-74	5.8279e-74	3.7024e-74	2.4658e-74	1.7223e-74	1.2618e-74	9.6999e-75	7.8251e-75	6.6258e-75	5.8894e-75	5.4956e-75	5.384e-75	5.5379e-75	5.9804e-75	6.7798e-75	8.0683e-75	1.0078e-74	1.321e-74	1.8167e-74	2.6209e-74	3.9661e-74	6.2967e-74	1.0504e-73	1.8509e-73	3.504e-73	7.4675e-73	1.9757e-72	7.2227e-72	3.6112e-71	2.196e-70	1.4723e-69	1.0385e-68	7.565e-68	5.6501e-67	4.312e-66	3.3556e-65	2.6585e-64	2.1412e-63	1.7508e-62	1.4512e-61	1.2178e-60	1.0333e-59	8.8509e-59	7.6445e-58	6.6482e-57	5.8139e-56	5.1059e-55	4.4972e-54	3.9675e-53	3.5016e-52	3.088e-51	2.7183e-50	2.3865e-49	2.0888e-48	1.8229e-47	1.588e-46	1.3844e-45	1.2132e-44	1.0752e-43	9.7119e-43	9.0019e-42	8.5938e-41	8.4344e-40	8.4456e-39	8.5309e-38	8.5868e-37	8.5186e-36	8.2561e-35	7.7662e-34	7.0569e-33	6.174e-32	5.1887e-31	4.182e-30	3.2289e-29	2.3864e-28	1.6873e-27	1.1409e-26	7.3755e-26	4.5582e-25	2.693e-24	1.5209e-23	8.2124e-23	4.2401e-22	2.0936e-21	9.8894e-21	4.4699e-20	1.9339e-19	8.0117e-19	3.1795e-18	1.2093e-17	4.41e-17	1.5428e-16	5.1808e-16	1.6708e-15	5.1784e-15	1.5433e-14	4.426e-14	1.2223e-13	3.2529e-13	8.349e-13	2.0683e-12	4.9495e-12	1.1452e-11	2.5642e-11	5.5614e-11	1.1695e-10	2.387e-10	4.7336e-10	9.1302e-10	1.7147e-09	3.1394e-09	5.6092e-09	9.7925e-09	1.6723e-08	2.7967e-08	4.5857e-08	7.3797e-08	1.1668e-07	1.8144e-07	2.7773e-07	4.188e-07	6.2263e-07	9.132e-07	1.3221e-06	1.8905e-06	2.671e-06	3.7301e-06	5.1509e-06	7.0353e-06	9.5073e-06	1.2715e-05	1.6833e-05	2.2064e-05	2.8643e-05	3.6832e-05	4.6926e-05	5.9248e-05	7.4147e-05	9.1992e-05	0.00011317	0.00013808	0.00016712	0.00020067	0.00023911	0.00028275	0.0003319	0.00038678	0.00044753	0.00051424	0.00058686	0.00066524	0.00074912	0.00083811	0.00093167	0.0010291	0.0011297	0.0012325	0.0013364	0.0014403	0.001543	0.0016431	0.0017395	0.0018308	0.0019156	0.0019929	0.0020614	0.0021202	0.0021684	0.0022053	0.0022306	0.0022438	0.0022449	0.0022341	0.0022116	0.002178	0.0021339	0.0020803	0.002018	0.0019481	0.0018718	0.0017901	0.0017042	0.0016154	0.0015247	0.0014332	0.0013419	0.0012516	0.0011632	0.0010774	0.00099469	0.00091565	0.00084062	0.0007699	0.00070366	0.00064201	0.00058497	0.00053248	0.00048445	0.0004407	0.00040102	0.00036516	0.00033285	0.00030378	0.00027765	0.00025414	0.00023296	0.0002138	0.00019639	0.00018047	0.00016583	0.00015227	0.00013963	0.00012777	0.0001166	0.00010604	9.6045e-05	8.6578e-05	7.7626e-05	6.9183e-05	6.1253e-05	5.3843e-05	4.6964e-05	4.0623e-05	3.4825e-05	2.9571e-05	2.4856e-05	2.0669e-05	1.6992e-05	1.3803e-05	1.1071e-05	8.763e-06	6.8401e-06	5.262e-06	3.987e-06	2.9735e-06	2.1816e-06	1.5735e-06	1.1152e-06	7.7608e-07	5.3007e-07	3.5513e-07	2.3325e-07	1.5012e-07	9.4622e-08	5.8383e-08	3.5247e-08	2.0811e-08	1.2012e-08	6.7747e-09	3.7322e-09	2.0075e-09	1.054e-09	5.3992e-10	2.6977e-10	1.3143e-10	6.2422e-11	2.8892e-11	1.3029e-11	5.7236e-12	2.4487e-12	1.0201e-12	4.1378e-13	1.6338e-13	6.2797e-14	2.3492e-14	8.5538e-15	3.0313e-15	1.0455e-15	3.5098e-16	1.1469e-16	3.6482e-17	1.1298e-17	3.4072e-18	1.0007e-18	2.8629e-19	7.9805e-20	2.1681e-20	5.7425e-21
7.27e-68	3.2327e-68	1.4969e-68	7.222e-69	3.6324e-69	1.9056e-69	1.0432e-69	5.9627e-70	3.5594e-70	2.2201e-70	1.4474e-70	9.8657e-71	7.0332e-71	5.2451e-71	4.093e-71	3.3426e-71	2.8573e-71	2.5569e-71	2.3954e-71	2.3495e-71	2.4127e-71	2.5941e-71	2.9199e-71	3.4405e-71	4.2432e-71	5.4767e-71	7.3963e-71	1.045e-70	1.5442e-70	2.387e-70	3.8623e-70	6.5589e-70	1.1788e-69	2.2957e-69	5.1227e-69	1.4392e-68	5.4558e-68	2.6766e-67	1.5336e-66	9.5193e-66	6.1741e-65	4.1218e-64	2.8143e-63	1.9591e-62	1.3877e-61	9.9856e-61	7.2901e-60	5.3924e-59	4.0361e-58	3.0529e-57	2.3306e-56	1.7934e-55	1.3893e-54	1.0821e-53	8.4639e-53	6.6394e-52	5.217e-51	4.1013e-50	3.222e-49	2.5264e-48	1.9752e-47	1.5381e-46	1.1919e-45	9.1849e-45	7.0365e-44	5.3594e-43	4.0613e-42	3.0668e-41	2.3133e-40	1.7488e-39	1.33e-38	1.0211e-37	7.9289e-37	6.2239e-36	4.9222e-35	3.8996e-34	3.0728e-33	2.3906e-32	1.8239e-31	1.357e-30	9.8012e-30	6.848e-29	4.6166e-28	2.9972e-27	1.8714e-26	1.1226e-25	6.465e-25	3.573e-24	1.8945e-23	9.6349e-23	4.7001e-22	2.1993e-21	9.8725e-21	4.2523e-20	1.7578e-19	6.976e-19	2.6588e-18	9.7354e-18	3.4262e-17	1.1595e-16	3.7752e-16	1.1832e-15	3.5716e-15	1.0391e-14	2.9153e-14	7.8932e-14	2.0639e-13	5.2155e-13	1.2748e-12	3.0161e-12	6.9138e-12	1.5368e-11	3.3154e-11	6.9487e-11	1.4162e-10	2.8096e-10	5.4311e-10	1.024e-09	1.8851e-09	3.3916e-09	5.97e-09	1.0291e-08	1.7387e-08	2.8823e-08	4.6914e-08	7.504e-08	1.1804e-07	1.8271e-07	2.7848e-07	4.1816e-07	6.1895e-07	9.0348e-07	1.3011e-06	1.8494e-06	2.5954e-06	3.5977e-06	4.9276e-06	6.6708e-06	8.9291e-06	1.1821e-05	1.5484e-05	2.0074e-05	2.5765e-05	3.2749e-05	4.1237e-05	5.1452e-05	6.3633e-05	7.8025e-05	9.4878e-05	0.00011444	0.00013695	0.00016264	0.00019171	0.00022434	0.00026066	0.00030076	0.00034467	0.00039237	0.00044376	0.00049866	0.00055681	0.00061788	0.00068146	0.00074703	0.00081401	0.00088176	0.00094956	0.0010167	0.0010822	0.0011455	0.0012056	0.0012618	0.0013133	0.0013594	0.0013994	0.0014328	0.0014592	0.0014783	0.0014898	0.0014936	0.0014899	0.0014787	0.0014603	0.0014352	0.0014038	0.0013667	0.0013245	0.0012778	0.0012274	0.001174	0.0011183	0.0010611	0.0010028	0.00094434	0.00088612	0.00082872	0.00077261	0.00071821	0.00066585	0.00061581	0.00056833	0.00052356	0.00048161	0.00044251	0.00040629	0.00037289	0.00034224	0.00031421	0.00028866	0.00026542	0.0002443	0.00022512	0.00020768	0.00019176	0.00017719	0.00016377	0.00015136	0.0001398	0.00012897	0.00011876	0.0001091	9.992e-05	9.1179e-05	8.2848e-05	7.4915e-05	6.7375e-05	6.0232e-05	5.3495e-05	4.7176e-05	4.1286e-05	3.5838e-05	3.0837e-05	2.6289e-05	2.2191e-05	1.8538e-05	1.5316e-05	1.2508e-05	1.0091e-05	8.0376e-06	6.3172e-06	4.8962e-06	3.7402e-06	2.8143e-06	2.0847e-06	1.5195e-06	1.0891e-06	7.6725e-07	5.3099e-07	3.6082e-07	2.4063e-07	1.5741e-07	1.0096e-07	6.3464e-08	3.908e-08	2.3564e-08	1.3907e-08	8.0308e-09	4.5357e-09	2.5047e-09	1.3518e-09	7.1289e-10	3.6721e-10	1.8471e-10	9.0705e-11	4.3473e-11	2.0332e-11	9.2769e-12	4.1288e-12	1.7922e-12	7.5857e-13	3.1307e-13	1.2597e-13	4.9414e-14	1.8896e-14	7.0444e-15	2.5601e-15	9.0703e-16	3.1331e-16	1.0553e-16	3.466e-17	1.1103e-17	3.4694e-18	1.0578e-18	3.1472e-19	9.1407e-20	2.5922e-20
