5.1421e-11	1.5965e-10	4.593e-10	1.2288e-09	3.0681e-09	7.1733e-09	1.5758e-08	3.2631e-08	6.3902e-08	1.1871e-07	2.0985e-07	3.5404e-07	5.7182e-07	8.8688e-07	1.3252e-06	1.9146e-06	2.6849e-06	3.6709e-06	4.9183e-06	6.4926e-06	8.4931e-06	1.1068e-05	1.4432e-05	1.8881e-05	2.4805e-05	3.2691e-05	4.3121e-05	5.6753e-05	7.4295e-05	9.6468e-05	0.00012396	0.00015737	0.00019718	0.00024374	0.00029723	0.00035769	0.00042507	0.00049923	0.00058004	0.0006674	0.00076128	0.00086177	0.00096917	0.001084	0.0012071	0.0013397	0.0014834	0.0016407	0.0018141	0.0020069	0.002223	0.0024663	0.0027411	0.0030519	0.003403	0.0037987	0.0042429	0.0047395	0.005292	0.0059036	0.0065775	0.0073171	0.0081262	0.009009	0.009971	0.011018	0.012159	0.013401	0.014754	0.016229	0.017836	0.019589	0.021499	0.023578	0.02584	0.028299	0.030968	0.033866	0.037009	0.040419	0.044117	0.048129	0.052485	0.057214	0.062352	0.067935	0.074003	0.0806	0.087771	0.095561	0.10402	0.11319	0.12312	0.13385	0.14541	0.15783	0.17112	0.1853	0.20035	0.21625	0.23295	0.25039	0.26848	0.28712	0.30618	0.3255	0.34491	0.36419	0.38314	0.40151	0.41907	0.43554	0.45068	0.46422	0.47593	0.48557	0.49293	0.49784	0.50016	0.49978	0.49665	0.49075	0.48212	0.47084	0.45704	0.44089	0.42262	0.40246	0.38069	0.35763	0.33358	0.30889	0.28388	0.25886	0.23417	0.21007	0.18684	0.16471	0.14387	0.12447	0.10663	0.090422	0.075874	0.062979	0.051693	0.041945	0.033635	0.026647	0.020849	0.016104	0.012275	0.009227	0.0068354	0.0049858	0.0035766	0.00252	0.0017411	0.0011775	0.00077792	0.00050091	0.00031362	0.00019044	0.00011186	6.3371e-05	3.4529e-05	1.804e-05	9.0094e-06	4.2871e-06	1.9374e-06	8.2867e-07	3.3432e-07	1.2678e-07	4.5024e-08	1.4921e-08	4.5968e-09	1.3116e-09	3.453e-10	8.3549e-11	1.8508e-11	3.7393e-12	6.863e-13	1.1399e-13	1.7066e-14	2.2945e-15	2.7596e-16	2.9578e-17	2.8147e-18	2.3694e-19	1.7579e-20	1.1454e-21	6.5311e-23	3.2477e-24	1.4036e-25	5.2551e-27	1.6989e-28	4.7273e-30	1.1289e-31	2.3064e-33	4.0207e-35	5.964e-37	7.5082e-39	8.0024e-41	7.2044e-43	5.4668e-45	3.4894e-47	1.8701e-49	8.4013e-52	3.1592e-54	9.9308e-57	2.6068e-59	5.7095e-62	1.0427e-64	1.5871e-67	2.0133e-70	2.1285e-73	1.8761e-76	1.3796e-79	8.4705e-83	4.3475e-86	1.8678e-89	6.7279e-93	2.0356e-96	5.1838e-100	1.1135e-103	2.0221e-107	3.112e-111	4.069e-115	4.5315e-119	4.3097e-123	3.5095e-127	2.4539e-131	1.4774e-135	7.6825e-140	3.4613e-144	1.3557e-148	4.633e-153	1.3868e-157	3.651e-162	8.4932e-167	1.7549e-171	3.2401e-176	5.3868e-181	8.1478e-186	1.1386e-190	1.5055e-195	1.9519e-200	2.5972e-205	3.6902e-210	5.6671e-215	9.2349e-220	1.5516e-224	2.6305e-229	4.4539e-234	7.5158e-239	1.2672e-243	2.1453e-248	3.6686e-253	6.3782e-258	1.1351e-262	2.0818e-267	3.9626e-272	7.8827e-277	1.6503e-281	3.6618e-286	8.6724e-291	2.2078e-295	6.0846e-300	1.8282e-304	6.0352e-309	2.2232e-313	1.0775e-317	5.35e-313	5.9223e-307	6.5557e-301	7.4028e-295	9.0645e-289	1.327e-282	2.4018e-276	4.8741e-270	9.7907e-264	1.8063e-257	2.9549e-251
1.9996e-11	6.3388e-11	1.8626e-10	5.091e-10	1.2987e-09	3.1027e-09	6.964e-09	1.4733e-08	2.9467e-08	5.5895e-08	1.0085e-07	1.7359e-07	2.8592e-07	4.5202e-07	6.8815e-07	1.0125e-06	1.4457e-06	2.0126e-06	2.7462e-06	3.6947e-06	4.9308e-06	6.5643e-06	8.7559e-06	1.1732e-05	1.5794e-05	2.1329e-05	2.8806e-05	3.8771e-05	5.182e-05	6.8576e-05	8.9647e-05	0.00011559	0.00014685	0.0001838	0.00022663	0.00027545	0.00033023	0.0003909	0.00045733	0.00052944	0.00060714	0.00069048	0.00077962	0.00087491	0.00097696	0.0010867	0.0012054	0.0013349	0.0014773	0.0016354	0.0018122	0.0020112	0.002236	0.0024905	0.0027785	0.0031038	0.0034699	0.0038801	0.0043376	0.0048449	0.0054047	0.0060194	0.0066919	0.0074252	0.0082231	0.0090903	0.010032	0.011056	0.012169	0.013381	0.014699	0.016134	0.017697	0.019397	0.021246	0.023255	0.025434	0.027798	0.030358	0.033131	0.036132	0.039381	0.042898	0.046708	0.050835	0.055308	0.060158	0.065418	0.071122	0.077308	0.084011	0.091269	0.099115	0.10758	0.1167	0.12648	0.13694	0.14809	0.15992	0.1724	0.18551	0.19919	0.21337	0.22798	0.24289	0.258	0.27315	0.2882	0.30296	0.31725	0.33087	0.34362	0.3553	0.36572	0.37467	0.38198	0.38749	0.39107	0.3926	0.39201	0.38925	0.38432	0.37725	0.36811	0.357	0.34406	0.32946	0.31341	0.29612	0.27784	0.25883	0.23934	0.21964	0.19998	0.18062	0.16176	0.14363	0.12639	0.11019	0.09516	0.081368	0.068868	0.057677	0.047782	0.039145	0.031703	0.025375	0.020065	0.015669	0.01208	0.0091894	0.0068935	0.0050955	0.0037078	0.0026528	0.0018637	0.0012835	0.00086485	0.00056906	0.00036481	0.00022731	0.00013731	8.0207e-05	4.5175e-05	2.4465e-05	1.2701e-05	6.302e-06	2.9792e-06	1.3375e-06	5.6841e-07	2.2789e-07	8.5898e-08	3.0334e-08	1.0001e-08	3.0672e-09	8.7185e-10	2.2885e-10	5.5265e-11	1.2233e-11	2.4724e-12	4.546e-13	7.5754e-14	1.1398e-14	1.5426e-15	1.8711e-16	2.0266e-17	1.9529e-18	1.6683e-19	1.2589e-20	8.3634e-22	4.8744e-23	2.484e-24	1.1033e-25	4.2569e-27	1.4225e-28	4.1045e-30	1.0196e-31	2.1744e-33	3.9702e-35	6.1909e-37	8.224e-39	9.2853e-41	8.8911e-43	7.2058e-45	4.9337e-47	2.849e-49	1.3854e-51	5.6661e-54	1.9467e-56	5.6133e-59	1.3575e-61	2.752e-64	4.6753e-67	6.6559e-70	7.9417e-73	7.9449e-76	6.6681e-79	4.6991e-82	2.7833e-85	1.3873e-88	5.8266e-92	2.0654e-95	6.1891e-99	1.5707e-102	3.3823e-106	6.1926e-110	9.6609e-114	1.2871e-117	1.468e-121	1.4369e-125	1.2103e-129	8.7979e-134	5.5366e-138	3.0263e-142	1.442e-146	6.013e-151	2.2039e-155	7.1357e-160	2.0531e-164	5.2897e-169	1.233e-173	2.6397e-178	5.3077e-183	1.0345e-187	2.0298e-192	4.1385e-197	8.8611e-202	1.9679e-206	4.435e-211	9.9654e-216	2.2118e-220	4.8376e-225	1.0447e-229	2.2371e-234	4.7768e-239	1.0233e-243	2.2136e-248	4.8668e-253	1.0949e-257	2.5375e-262	6.0994e-267	1.5311e-271	4.0412e-276	1.1293e-280	3.3643e-285	1.0759e-289	3.7188e-294	1.3998e-298	5.8131e-303	2.8914e-307	3.1333e-311	1.7481e-309	1.5107e-303	1.2908e-297	1.0822e-291	8.8355e-286	6.9792e-280	5.3076e-274	3.8832e-268	2.7533e-262	1.9299e-256	1.378e-250
7.2451e-12	2.3457e-11	7.0422e-11	1.967e-10	5.1287e-10	1.2523e-09	2.8728e-09	6.2106e-09	1.2692e-08	2.4589e-08	4.5297e-08	7.9574e-08	1.337e-07	2.1553e-07	3.3445e-07	5.0144e-07	7.2954e-07	1.0351e-06	1.4407e-06	1.9793e-06	2.7018e-06	3.6862e-06	5.0483e-06	6.9543e-06	9.6313e-06	1.3376e-05	1.8557e-05	2.5611e-05	3.503e-05	4.7337e-05	6.3059e-05	8.2689e-05	0.00010666	0.00013531	0.00016887	0.00020747	0.00025114	0.00029984	0.00035348	0.00041199	0.00047527	0.00054333	0.00061625	0.00069426	0.00077778	0.00086751	0.00096444	0.0010699	0.0011857	0.001314	0.0014573	0.0016183	0.0018003	0.0020065	0.0022402	0.0025046	0.0028029	0.0031379	0.0035123	0.0039284	0.0043883	0.0048938	0.0054469	0.0060499	0.0067054	0.0074167	0.0081881	0.0090246	0.0099323	0.010918	0.011989	0.013154	0.014421	0.015798	0.017295	0.01892	0.020682	0.022591	0.024657	0.026889	0.029301	0.031905	0.034716	0.037752	0.041031	0.044574	0.048405	0.052548	0.05703	0.061879	0.067123	0.07279	0.078908	0.0855	0.092588	0.10019	0.10831	0.11696	0.12613	0.1358	0.14595	0.15653	0.1675	0.17878	0.19029	0.20192	0.21358	0.22514	0.23645	0.24737	0.25776	0.26745	0.2763	0.28413	0.29082	0.29622	0.30022	0.30271	0.30361	0.30286	0.30045	0.29636	0.29062	0.28328	0.27444	0.26421	0.25271	0.24011	0.22659	0.21232	0.19753	0.18239	0.16713	0.15194	0.137	0.1225	0.10858	0.095378	0.083007	0.07155	0.061066	0.051587	0.043122	0.035656	0.029156	0.023567	0.018827	0.014858	0.01158	0.0089096	0.006763	0.0050617	0.0037321	0.0027083	0.0019319	0.0013526	0.00092805	0.00062278	0.00040793	0.00026022	0.00016127	9.6863e-05	5.6235e-05	3.1471e-05	1.693e-05	8.7293e-06	4.3011e-06	2.019e-06	9.0005e-07	3.7984e-07	1.5125e-07	5.6642e-08	1.9881e-08	6.5179e-09	1.989e-09	5.6299e-10	1.4729e-10	3.5486e-11	7.8457e-12	1.586e-12	2.9209e-13	4.8828e-14	7.3824e-15	1.0059e-15	1.2307e-16	1.3472e-17	1.315e-18	1.1405e-19	8.7591e-21	5.9367e-22	3.5394e-23	1.8501e-24	8.4529e-26	3.365e-27	1.1638e-28	3.4864e-30	9.0222e-32	2.0114e-33	3.8534e-35	6.3278e-37	8.8867e-39	1.065e-40	1.087e-42	9.4296e-45	6.9415e-47	4.3293e-49	2.2845e-51	1.0187e-53	3.8344e-56	1.2175e-58	3.2583e-61	7.3476e-64	1.3957e-66	2.2331e-69	3.0098e-72	3.4186e-75	3.2738e-78	2.6451e-81	1.8045e-84	1.0406e-87	5.0779e-91	2.0996e-94	7.3662e-98	2.1964e-101	5.5757e-105	1.2073e-108	2.2341e-112	3.5412e-116	4.8193e-120	5.6456e-124	5.7088e-128	4.998e-132	3.8012e-136	2.5206e-140	1.4634e-144	7.4757e-149	3.3802e-153	1.3633e-157	4.9571e-162	1.6494e-166	5.1299e-171	1.5333e-175	4.5412e-180	1.3646e-184	4.191e-189	1.3036e-193	4.0425e-198	1.2331e-202	3.6732e-207	1.0664e-211	3.0225e-216	8.3968e-221	2.2982e-225	6.2329e-230	1.6852e-234	4.5713e-239	1.252e-243	3.485e-248	9.9229e-253	2.9094e-257	8.8424e-262	2.8044e-266	9.3439e-271	3.2927e-275	1.2354e-279	4.9692e-284	2.1581e-288	1.0238e-292	5.6435e-297	5.7074e-301	2.3714e-304	6.1984e-306	4.048e-300	2.7066e-294	1.7775e-288	1.1379e-282	7.0486e-277	4.1936e-271	2.3793e-265	1.2783e-259	6.4587e-254	3.0494e-248
2.4375e-12	8.0618e-12	2.4733e-11	7.0612e-11	1.8821e-10	4.6983e-10	1.1018e-09	2.4347e-09	5.0843e-09	1.0063e-08	1.8932e-08	3.3952e-08	5.8211e-08	9.5717e-08	1.5146e-07	2.3155e-07	3.4357e-07	4.9751e-07	7.0754e-07	9.9516e-07	1.3941e-06	1.957e-06	2.7641e-06	3.9325e-06	5.6264e-06	8.0653e-06	1.1529e-05	1.6356e-05	2.2937e-05	3.1701e-05	4.3089e-05	5.7529e-05	7.541e-05	9.7054e-05	0.0001227	0.00015251	0.00018654	0.00022481	0.00026725	0.00031382	0.00036443	0.00041907	0.00047778	0.0005407	0.00060814	0.0006806	0.00075883	0.00084387	0.00093709	0.0010402	0.0011552	0.0012843	0.0014303	0.0015956	0.0017832	0.0019957	0.002236	0.0025064	0.0028093	0.0031465	0.0035198	0.0039307	0.0043806	0.0048711	0.0054039	0.0059815	0.0066069	0.0072838	0.0080169	0.0088115	0.0096736	0.01061	0.011627	0.012731	0.013931	0.015233	0.016643	0.018169	0.019817	0.021596	0.023514	0.025579	0.027802	0.030195	0.032772	0.035547	0.038537	0.041761	0.045238	0.04899	0.053038	0.057404	0.062108	0.06717	0.072606	0.078429	0.084647	0.091263	0.098272	0.10566	0.11341	0.12148	0.12984	0.13842	0.14717	0.15601	0.16484	0.17357	0.18211	0.19032	0.1981	0.20533	0.21189	0.21767	0.22255	0.22643	0.22923	0.23088	0.2313	0.23048	0.22838	0.22501	0.2204	0.21458	0.20763	0.19964	0.19072	0.18097	0.17055	0.15959	0.14826	0.13669	0.12506	0.11352	0.10219	0.091218	0.080714	0.070777	0.061486	0.052903	0.045068	0.038002	0.031706	0.026167	0.021356	0.017229	0.013736	0.010819	0.0084145	0.0064595	0.0048917	0.0036517	0.0026849	0.0019423	0.0013807	0.00096297	0.00065789	0.00043942	0.00028635	0.00018166	0.00011192	6.6796e-05	3.8522e-05	2.1409e-05	1.1434e-05	5.8524e-06	2.862e-06	1.3334e-06	5.8995e-07	2.4713e-07	9.7701e-08	3.6335e-08	1.267e-08	4.129e-09	1.2532e-09	3.531e-10	9.2034e-11	2.2115e-11	4.8823e-12	9.8682e-13	1.8198e-13	3.0511e-14	4.6349e-15	6.357e-16	7.845e-17	8.6812e-18	8.5848e-19	7.5613e-20	5.912e-21	4.0902e-22	2.496e-23	1.3393e-24	6.2995e-26	2.5899e-27	9.2795e-29	2.8897e-30	7.8003e-32	1.8204e-33	3.6642e-35	6.3463e-37	9.4374e-39	1.2024e-40	1.3102e-42	1.2187e-44	9.6613e-47	6.5181e-49	3.7376e-51	1.8195e-53	7.5128e-56	2.6289e-58	7.7912e-61	1.9548e-63	4.151e-66	7.4597e-69	1.1345e-71	1.4607e-74	1.5926e-77	1.4712e-80	1.1525e-83	7.6615e-87	4.3268e-90	2.0783e-93	8.5019e-97	2.9665e-100	8.843e-104	2.2563e-107	4.9378e-111	9.289e-115	1.5059e-118	2.1096e-122	2.5616e-126	2.7057e-130	2.4962e-134	2.0213e-138	1.4455e-142	9.2036e-147	5.2746e-151	2.762e-155	1.3478e-159	6.2767e-164	2.8555e-168	1.2897e-172	5.8049e-177	2.5857e-181	1.1275e-185	4.7688e-190	1.9467e-194	7.6624e-199	2.9135e-203	1.0741e-207	3.8579e-212	1.3573e-216	4.7048e-221	1.6163e-225	5.5374e-230	1.9035e-234	6.6074e-239	2.3306e-243	8.4074e-248	3.1218e-252	1.2009e-256	4.8173e-261	2.0283e-265	9.0225e-270	4.2686e-274	2.1628e-278	1.1865e-282	7.409e-287	7.5529e-291	2.8189e-294	2.4063e-297	2.6695e-300	1.1283e-296	5.8855e-291	3.0194e-285	1.5121e-279	7.3389e-274	3.427e-268	1.5289e-262	6.4712e-257	2.5809e-251	9.6347e-246
7.5873e-13	2.5638e-12	8.0385e-12	2.3461e-11	6.3934e-11	1.6318e-10	3.9125e-10	8.8382e-10	1.8864e-09	3.815e-09	7.3309e-09	1.3424e-08	2.3491e-08	3.9413e-08	6.363e-08	9.9262e-08	1.5039e-07	2.2262e-07	3.2432e-07	4.686e-07	6.7659e-07	9.8218e-07	1.4382e-06	2.1238e-06	3.1527e-06	4.6809e-06	6.912e-06	1.0099e-05	1.4543e-05	2.058e-05	2.8569e-05	3.8869e-05	5.1817e-05	6.7709e-05	8.678e-05	0.0001092	0.00013507	0.00016442	0.00019725	0.00023353	0.00027321	0.00031626	0.00036272	0.00041268	0.00046635	0.00052411	0.00058651	0.00065435	0.00072867	0.00081079	0.0009023	0.001005	0.001121	0.0012523	0.0014014	0.0015706	0.001762	0.0019777	0.0022198	0.0024899	0.0027893	0.0031192	0.0034808	0.0038752	0.0043035	0.0047674	0.0052691	0.0058113	0.0063975	0.0070316	0.0077186	0.0084633	0.0092713	0.010148	0.011099	0.01213	0.013246	0.014452	0.015753	0.017155	0.018662	0.020282	0.022021	0.023886	0.025888	0.028036	0.030342	0.03282	0.035484	0.038349	0.041432	0.044749	0.048315	0.052147	0.056256	0.060652	0.065343	0.070331	0.07561	0.081173	0.087	0.093068	0.099343	0.10578	0.11233	0.11894	0.12553	0.13203	0.13836	0.14443	0.15016	0.15546	0.16023	0.16439	0.16787	0.17059	0.17248	0.17349	0.17359	0.17275	0.17095	0.16821	0.16454	0.15999	0.1546	0.14845	0.14161	0.13419	0.12628	0.11799	0.10944	0.10075	0.092037	0.083404	0.074959	0.066798	0.059004	0.051649	0.04479	0.038469	0.032712	0.027532	0.022928	0.018887	0.015384	0.012387	0.0098556	0.0077458	0.0060107	0.004603	0.0034765	0.0025877	0.0018964	0.001367	0.00096783	0.00067206	0.00045692	0.00030357	0.0001967	0.00012401	7.5904e-05	4.4991e-05	2.576e-05	1.421e-05	7.5312e-06	3.8245e-06	1.8556e-06	8.5761e-07	3.7646e-07	1.5648e-07	6.1397e-08	2.2668e-08	7.8508e-09	2.5423e-09	7.6728e-10	2.1512e-10	5.5847e-11	1.338e-11	2.9486e-12	5.9573e-13	1.0997e-13	1.8488e-14	2.8211e-15	3.8941e-16	4.8466e-17	5.4207e-18	5.4307e-19	4.8578e-20	3.8674e-21	2.7318e-22	1.7068e-23	9.4047e-25	4.5566e-26	1.9357e-27	7.1905e-29	2.3293e-30	6.5637e-32	1.6049e-33	3.3972e-35	6.2115e-37	9.7896e-39	1.3273e-40	1.5454e-42	1.5424e-44	1.3177e-46	9.6218e-49	5.9979e-51	3.1883e-53	1.4439e-55	5.5663e-58	1.8256e-60	5.0917e-63	1.2072e-65	2.4328e-68	4.1671e-71	6.068e-74	7.5142e-77	7.9169e-80	7.1014e-83	5.4275e-86	3.5379e-89	1.9692e-92	9.3711e-96	3.8188e-99	1.3349e-102	4.0104e-106	1.0378e-109	2.3194e-113	4.4893e-117	7.5518e-121	1.1086e-124	1.4274e-128	1.6226e-132	1.6423e-136	1.4967e-140	1.2462e-144	9.6489e-149	7.0794e-153	5.0038e-157	3.44e-161	2.3027e-165	1.4934e-169	9.3175e-174	5.5621e-178	3.1684e-182	1.7224e-186	8.9552e-191	4.4694e-195	2.151e-199	1.0033e-203	4.5605e-208	2.0316e-212	8.9212e-217	3.8846e-221	1.6874e-225	7.3566e-230	3.2388e-234	1.4489e-238	6.6273e-243	3.119e-247	1.5199e-251	7.7183e-256	4.1103e-260	2.3103e-264	1.3801e-268	8.8523e-273	6.372e-277	6.9389e-281	2.451e-284	2.0812e-287	2.328e-290	3.0643e-293	3.2627e-293	1.3222e-287	5.2839e-282	2.0643e-276	7.8283e-271	2.8613e-265	1.001e-259	3.3296e-254	1.0459e-248	3.0822e-243
2.1772e-13	7.5161e-13	2.4085e-12	7.1859e-12	2.0022e-11	5.2253e-11	1.281e-10	2.9583e-10	6.4538e-10	1.3337e-09	2.6181e-09	4.8955e-09	8.7464e-09	1.498e-08	2.4689e-08	3.9339e-08	6.095e-08	9.2462e-08	1.3846e-07	2.0646e-07	3.0898e-07	4.6671e-07	7.128e-07	1.0983e-06	1.6986e-06	2.6197e-06	4.0039e-06	6.0331e-06	8.9285e-06	1.2945e-05	1.8364e-05	2.5473e-05	3.4557e-05	4.5873e-05	5.964e-05	7.6031e-05	9.5162e-05	0.0001171	0.00014188	0.0001695	0.00019993	0.00023318	0.00026927	0.00030827	0.00035034	0.00039576	0.00044495	0.0004985	0.00055721	0.00062209	0.00069435	0.00077541	0.00086685	0.00097042	0.0010879	0.0012212	0.0013722	0.0015425	0.0017338	0.0019475	0.0021847	0.0024464	0.0027336	0.0030468	0.0033871	0.0037555	0.0041535	0.0045832	0.0050469	0.0055477	0.0060891	0.0066752	0.00731	0.0079979	0.0087432	0.0095499	0.010422	0.011364	0.012378	0.013469	0.01464	0.015896	0.017239	0.018677	0.020213	0.021856	0.023614	0.025494	0.027509	0.029668	0.031984	0.034469	0.037134	0.039992	0.043051	0.046321	0.049806	0.053509	0.057425	0.061549	0.065865	0.070356	0.074996	0.07975	0.08458	0.089441	0.094279	0.099039	0.10366	0.10807	0.11222	0.11602	0.11943	0.12237	0.12479	0.12663	0.12786	0.12843	0.12832	0.12752	0.12601	0.12381	0.12094	0.11742	0.1133	0.10863	0.10347	0.0979	0.091988	0.085819	0.079478	0.073051	0.066623	0.060275	0.054082	0.048113	0.042427	0.037074	0.032094	0.027516	0.023356	0.019621	0.01631	0.013409	0.010901	0.0087592	0.0069541	0.0054528	0.0042207	0.0032234	0.0024271	0.0018005	0.0013146	0.00094368	0.00066507	0.00045949	0.00031068	0.00020518	0.0001321	8.272e-05	5.0268e-05	2.9574e-05	1.6802e-05	9.1945e-06	4.8336e-06	2.4344e-06	1.1714e-06	5.3692e-07	2.3377e-07	9.6392e-08	3.7528e-08	1.3753e-08	4.73e-09	1.5218e-09	4.5664e-10	1.2738e-10	3.2932e-11	7.8652e-12	1.7299e-12	3.4928e-13	6.4531e-14	1.0875e-14	1.6664e-15	2.3144e-16	2.9042e-17	3.2823e-18	3.3307e-19	3.0252e-20	2.452e-21	1.7682e-22	1.1311e-23	6.4001e-25	3.1943e-26	1.4024e-27	5.4015e-29	1.8206e-30	5.3568e-32	1.3726e-33	3.0563e-35	5.9007e-37	9.8582e-39	1.4225e-40	1.7698e-42	1.8954e-44	1.7447e-46	1.3785e-48	9.3375e-51	5.4165e-53	2.6884e-55	1.1407e-57	4.1358e-60	1.2805e-62	3.3848e-65	7.6372e-68	1.4709e-70	2.4185e-73	3.3958e-76	4.0739e-79	4.1785e-82	3.6671e-85	2.7567e-88	1.7772e-91	9.8405e-95	4.6878e-98	1.9252e-101	6.8328e-105	2.1016e-108	5.6217e-112	1.3134e-115	2.6947e-119	4.8884e-123	7.9104e-127	1.1545e-130	1.5398e-134	1.904e-138	2.2127e-142	2.4413e-146	2.5699e-150	2.5806e-154	2.464e-158	2.2286e-162	1.9045e-166	1.5366e-170	1.1718e-174	8.4689e-179	5.8213e-183	3.8224e-187	2.4091e-191	1.4649e-195	8.6403e-200	4.9704e-204	2.8044e-208	1.5608e-212	8.6187e-217	4.7496e-221	2.6277e-225	1.4682e-229	8.3351e-234	4.8373e-238	2.8874e-242	1.7837e-246	1.1474e-250	7.7343e-255	5.4998e-259	4.1686e-263	3.51e-267	4.2668e-271	1.5113e-274	1.2989e-277	1.4951e-280	2.0167e-283	3.1528e-286	6.7018e-289	3.0573e-284	9.4924e-279	2.8854e-273	8.5271e-268	2.4332e-262	6.6586e-257	1.736e-251	4.2837e-246	9.9409e-241
5.7375e-14	2.0234e-13	6.6261e-13	2.0209e-12	5.7567e-12	1.5361e-11	3.8501e-11	9.0898e-11	2.0269e-10	4.2802e-10	8.5835e-10	1.6393e-09	2.9908e-09	5.2313e-09	8.8093e-09	1.4358e-08	2.2801e-08	3.5569e-08	5.502e-08	8.5204e-08	1.3314e-07	2.1081e-07	3.38e-07	5.4612e-07	8.8284e-07	1.4171e-06	2.2442e-06	3.4892e-06	5.3084e-06	7.8877e-06	1.1437e-05	1.6181e-05	2.2346e-05	3.0149e-05	3.9785e-05	5.1415e-05	6.5165e-05	8.1122e-05	9.9341e-05	0.00011985	0.00014266	0.00016779	0.00019528	0.00022518	0.00025763	0.00029283	0.00033112	0.00037294	0.0004189	0.00046974	0.0005264	0.00058994	0.00066159	0.00074266	0.00083458	0.0009388	0.0010568	0.0011899	0.0013395	0.0015068	0.0016926	0.0018978	0.002123	0.0023689	0.0026361	0.0029253	0.0032375	0.0035741	0.0039369	0.0043279	0.0047499	0.0052058	0.0056986	0.0062316	0.0068082	0.0074314	0.0081042	0.0088295	0.0096099	0.010448	0.011345	0.012306	0.013331	0.014424	0.015589	0.01683	0.018153	0.019562	0.021066	0.022672	0.024387	0.026222	0.028185	0.030284	0.032527	0.034921	0.037469	0.040173	0.043032	0.046039	0.049186	0.052456	0.055831	0.059285	0.062788	0.066307	0.069801	0.073228	0.076543	0.079697	0.082642	0.085329	0.087712	0.089745	0.091389	0.092605	0.093365	0.093644	0.093424	0.092698	0.091465	0.089731	0.087513	0.084836	0.081732	0.078242	0.074411	0.070292	0.065943	0.061423	0.056793	0.052116	0.047453	0.042861	0.038394	0.034099	0.030018	0.026186	0.02263	0.019367	0.01641	0.013761	0.011417	0.0093681	0.0075999	0.0060933	0.0048261	0.0037744	0.0029133	0.0022179	0.0016642	0.0012297	0.00089397	0.00063863	0.0004477	0.00030753	0.00020664	0.00013556	8.6657e-05	5.3861e-05	3.2477e-05	1.8954e-05	1.0679e-05	5.7951e-06	3.0206e-06	1.5083e-06	7.1956e-07	3.2704e-07	1.4121e-07	5.7757e-08	2.2311e-08	8.1162e-09	2.7719e-09	8.8615e-10	2.6437e-10	7.3382e-11	1.8893e-11	4.4985e-12	9.8748e-13	1.9924e-13	3.6838e-14	6.2226e-15	9.5737e-16	1.3375e-16	1.6918e-17	1.9315e-18	1.9846e-19	1.8298e-20	1.5094e-21	1.1108e-22	7.2726e-24	4.2244e-25	2.1712e-26	9.8478e-28	3.9319e-29	1.3785e-30	4.2339e-32	1.1366e-33	2.6613e-35	5.4236e-37	9.6017e-39	1.474e-40	1.9587e-42	2.2496e-44	2.2298e-46	1.905e-48	1.4011e-50	8.8621e-53	4.8163e-55	2.2473e-57	8.9979e-60	3.0898e-62	9.0975e-65	2.2964e-67	4.9694e-70	9.2214e-73	1.4679e-75	2.0055e-78	2.3536e-81	2.375e-84	2.0634e-87	1.5458e-90	1.0005e-93	5.6083e-97	2.7305e-100	1.1589e-103	4.3072e-107	1.4098e-110	4.0925e-114	1.0626e-117	2.4921e-121	5.3361e-125	1.054e-128	1.9369e-132	3.3302e-136	5.3693e-140	8.1161e-144	1.1485e-147	1.5195e-151	1.8786e-155	2.1723e-159	2.3537e-163	2.3968e-167	2.3021e-171	2.0943e-175	1.8128e-179	1.5003e-183	1.1931e-187	9.1641e-192	6.8352e-196	4.9772e-200	3.5579e-204	2.5106e-208	1.7587e-212	1.23e-216	8.639e-221	6.1287e-225	4.4175e-229	3.2543e-233	2.4649e-237	1.9312e-241	1.5747e-245	1.3451e-249	1.2165e-253	1.2143e-257	1.707e-261	6.4157e-265	5.7079e-268	6.847e-271	9.5809e-274	1.5417e-276	2.8601e-279	6.1447e-282	7.2506e-281	1.7443e-275	4.1153e-270	9.4547e-265	2.1011e-259	4.4865e-254	9.1463e-249	1.7688e-243	3.2245e-238
1.3832e-14	4.9825e-14	1.6671e-13	5.1964e-13	1.5132e-12	4.1276e-12	1.0576e-11	2.5524e-11	5.8167e-11	1.2552e-10	2.5715e-10	5.0167e-10	9.35e-10	1.6713e-09	2.8793e-09	4.8107e-09	7.8575e-09	1.267e-08	2.0388e-08	3.3073e-08	5.4451e-08	9.1114e-08	1.5432e-07	2.6248e-07	4.444e-07	7.4301e-07	1.2192e-06	1.9555e-06	3.0578e-06	4.6558e-06	6.9005e-06	9.9585e-06	1.4005e-05	1.9212e-05	2.5745e-05	3.3748e-05	4.3341e-05	5.462e-05	6.7656e-05	8.2499e-05	9.9187e-05	0.00011775	0.00013825	0.00016073	0.00018533	0.0002122	0.0002416	0.00027388	0.00030949	0.000349	0.0003931	0.00044259	0.00049838	0.00056147	0.00063292	0.00071385	0.00080538	0.0009086	0.0010245	0.0011541	0.0012982	0.0014573	0.0016321	0.001823	0.0020304	0.0022548	0.002497	0.0027577	0.0030382	0.0033401	0.003665	0.0040152	0.0043928	0.0048004	0.0052403	0.0057148	0.0062263	0.0067768	0.0073682	0.0080021	0.0086803	0.0094042	0.010175	0.010996	0.011867	0.012793	0.013775	0.014817	0.015925	0.017102	0.018355	0.01969	0.021114	0.022632	0.02425	0.025973	0.027805	0.029747	0.031798	0.033954	0.036208	0.038548	0.040961	0.043427	0.045925	0.048429	0.05091	0.053335	0.055673	0.057887	0.059943	0.061806	0.063442	0.064819	0.06591	0.066689	0.067136	0.067234	0.066974	0.066352	0.065367	0.064028	0.062347	0.060345	0.058045	0.055478	0.052678	0.049683	0.046534	0.043275	0.039949	0.0366	0.033272	0.030003	0.026832	0.023791	0.020909	0.01821	0.01571	0.013421	0.011351	0.0095011	0.0078672	0.006442	0.0052145	0.0041706	0.0032944	0.0025689	0.0019763	0.001499	0.0011202	0.00082395	0.00059596	0.00042337	0.000295	0.00020131	0.00013432	8.7463e-05	5.5475e-05	3.4201e-05	2.045e-05	1.1833e-05	6.6091e-06	3.5549e-06	1.8366e-06	9.0906e-07	4.2992e-07	1.9374e-07	8.296e-08	3.366e-08	1.2904e-08	4.6601e-09	1.5809e-09	5.0233e-10	1.4905e-10	4.1181e-11	1.0563e-11	2.5081e-12	5.4967e-13	1.1086e-13	2.0517e-14	3.4743e-15	5.3675e-16	7.5436e-17	9.6172e-18	1.109e-18	1.1536e-19	1.0793e-20	9.0581e-22	6.8005e-23	4.555e-24	2.7149e-25	1.4362e-26	6.7264e-28	2.7824e-29	1.0141e-30	3.2495e-32	9.1339e-34	2.2475e-35	4.8319e-37	9.0589e-39	1.4785e-40	2.0972e-42	2.5815e-44	2.7537e-46	2.5423e-48	2.0292e-50	1.3988e-52	8.321e-55	4.2685e-57	1.8872e-59	7.1887e-62	2.3587e-64	6.6661e-67	1.623e-69	3.4055e-72	6.1619e-75	9.6228e-78	1.2985e-80	1.5164e-83	1.5354e-86	1.3513e-89	1.0368e-92	6.9618e-96	4.1096e-99	2.1445e-102	9.9575e-106	4.1438e-109	1.5575e-112	5.3266e-116	1.6684e-119	4.8093e-123	1.2797e-126	3.1474e-130	7.1584e-134	1.5056e-137	2.9297e-141	5.2793e-145	8.8254e-149	1.3721e-152	1.99e-156	2.7022e-160	3.4493e-164	4.1566e-168	4.7503e-172	5.1726e-176	5.3929e-180	5.4103e-184	5.2495e-188	4.9517e-192	4.5648e-196	4.1347e-200	3.6998e-204	3.2886e-208	2.9198e-212	2.6041e-216	2.3462e-220	2.1476e-224	2.0089e-228	1.9315e-232	1.9201e-236	1.9867e-240	2.1638e-244	2.5937e-248	4.3484e-252	1.8267e-255	1.7252e-258	2.1849e-261	3.2096e-264	5.3802e-267	1.0313e-269	2.27e-272	5.7635e-275	3.4511e-277	3.2673e-272	5.9692e-267	1.0637e-261	1.8367e-256	3.0535e-251	4.8566e-246	7.3441e-241	1.0494e-235
3.0389e-15	1.1177e-14	3.82e-14	1.2166e-13	3.6204e-13	1.0094e-12	2.6434e-12	6.5197e-12	1.5183e-11	3.3475e-11	7.0067e-11	1.3966e-10	2.6605e-10	4.8657e-10	8.593e-10	1.4768e-09	2.4946e-09	4.1906e-09	7.0861e-09	1.2176e-08	2.1341e-08	3.8037e-08	6.8371e-08	1.2267e-07	2.1757e-07	3.7863e-07	6.4322e-07	1.0634e-06	1.7079e-06	2.6637e-06	4.0347e-06	5.9397e-06	8.5073e-06	1.1871e-05	1.616e-05	2.1497e-05	2.7991e-05	3.5735e-05	4.4805e-05	5.5263e-05	6.7163e-05	8.0554e-05	9.5494e-05	0.00011206	0.00013035	0.00015051	0.00017274	0.00019733	0.0002246	0.000255	0.00028903	0.0003273	0.00037046	0.00041925	0.00047447	0.00053694	0.0006075	0.00068697	0.00077616	0.00087578	0.00098647	0.0011087	0.001243	0.0013897	0.0015491	0.0017214	0.0019072	0.0021069	0.0023214	0.0025515	0.0027987	0.0030642	0.0033496	0.0036568	0.0039875	0.0043433	0.004726	0.0051371	0.005578	0.0060499	0.006554	0.0070912	0.0076624	0.0082686	0.008911	0.0095908	0.01031	0.01107	0.011874	0.012725	0.013627	0.014583	0.015599	0.016679	0.017826	0.019046	0.02034	0.021709	0.023153	0.024671	0.026255	0.027899	0.029593	0.031322	0.033071	0.03482	0.03655	0.038236	0.039856	0.041383	0.042793	0.044061	0.045164	0.046079	0.046787	0.047271	0.047518	0.047518	0.047263	0.046753	0.04599	0.044979	0.043731	0.042261	0.040588	0.038732	0.03672	0.034578	0.032336	0.030025	0.027674	0.025314	0.022976	0.020686	0.01847	0.016351	0.014347	0.012474	0.010743	0.0091619	0.0077345	0.0064611	0.0053387	0.0043616	0.0035216	0.0028088	0.0022119	0.0017188	0.0013172	0.00099475	0.00073976	0.00054123	0.00038917	0.0002747	0.00019008	0.00012876	8.5238e-05	5.505e-05	3.462e-05	2.1157e-05	1.2538e-05	7.1887e-06	3.9788e-06	2.1207e-06	1.0858e-06	5.3264e-07	2.4971e-07	1.1158e-07	4.7392e-08	1.908e-08	7.2609e-09	2.6045e-09	8.781e-10	2.7746e-10	8.1936e-11	2.2548e-11	5.766e-12	1.3663e-12	2.9915e-13	6.0353e-14	1.1188e-14	1.9004e-15	2.9498e-16	4.1725e-17	5.3638e-18	6.2497e-19	6.5825e-20	6.2506e-21	5.3373e-22	4.0875e-23	2.8006e-24	1.7124e-25	9.3215e-27	4.5065e-28	1.9306e-29	7.3121e-31	2.4433e-32	7.188e-34	1.8581e-35	4.2124e-37	8.3605e-39	1.4503e-40	2.1955e-42	2.8962e-44	3.325e-46	3.3182e-48	2.8755e-50	2.1619e-52	1.4092e-54	7.9593e-57	3.8937e-59	1.6495e-61	6.0516e-64	1.9231e-66	5.2962e-69	1.265e-71	2.6237e-74	4.7318e-77	7.435e-80	1.0203e-82	1.2265e-85	1.2962e-88	1.2092e-91	1.0006e-94	7.3822e-98	4.8816e-101	2.9084e-104	1.5684e-107	7.685e-111	3.4313e-114	1.3988e-117	5.2141e-121	1.779e-124	5.5622e-128	1.5959e-131	4.2101e-135	1.0235e-138	2.2991e-142	4.7878e-146	9.2751e-150	1.6778e-153	2.8458e-157	4.5445e-161	6.8633e-165	9.8469e-169	1.3484e-172	1.7706e-176	2.2407e-180	2.746e-184	3.2757e-188	3.823e-192	4.3879e-196	4.9791e-200	5.6159e-204	6.33e-208	7.1692e-212	8.2038e-216	9.538e-220	1.133e-223	1.3832e-227	1.7471e-231	2.3119e-235	3.372e-239	6.9446e-243	3.4133e-246	3.5088e-249	4.7537e-252	7.4163e-255	1.3101e-257	2.6254e-260	5.9925e-263	1.5647e-265	4.6943e-268	1.6253e-270	6.2168e-269	8.7759e-264	1.2104e-258	1.6207e-253	2.0933e-248	2.5921e-243	3.0586e-238	3.4188e-233
6.0597e-16	2.2747e-15	7.9382e-15	2.5823e-14	7.8504e-14	2.2362e-13	5.9838e-13	1.5079e-12	3.5878e-12	8.0814e-12	1.7283e-11	3.5212e-11	6.863e-11	1.2867e-10	2.3376e-10	4.1566e-10	7.3252e-10	1.2973e-09	2.3372e-09	4.3107e-09	8.1249e-09	1.5513e-08	2.9648e-08	5.6073e-08	1.0401e-07	1.8804e-07	3.3016e-07	5.6185e-07	9.2604e-07	1.4784e-06	2.2878e-06	3.4351e-06	5.0113e-06	7.1133e-06	9.8406e-06	1.329e-05	1.7554e-05	2.2714e-05	2.8844e-05	3.601e-05	4.4271e-05	5.3685e-05	6.4316e-05	7.6239e-05	8.9553e-05	0.00010438	0.0001209	0.00013932	0.00015992	0.00018302	0.000209	0.00023831	0.00027144	0.00030892	0.00035133	0.00039926	0.00045335	0.00051418	0.00058237	0.00065844	0.0007429	0.00083615	0.00093851	0.0010502	0.0011715	0.0013026	0.0014437	0.0015951	0.0017572	0.0019307	0.0021163	0.002315	0.0025277	0.0027558	0.0030004	0.0032629	0.0035444	0.0038461	0.004169	0.0045141	0.0048821	0.0052737	0.0056895	0.0061299	0.0065955	0.0070869	0.0076048	0.0081504	0.0087249	0.0093303	0.0099688	0.010643	0.011356	0.01211	0.01291	0.013756	0.014652	0.015599	0.016597	0.017643	0.018735	0.019868	0.021033	0.022222	0.023423	0.024622	0.025805	0.026956	0.028058	0.029092	0.030042	0.030891	0.031621	0.032218	0.032669	0.032962	0.033088	0.033042	0.03282	0.03242	0.031845	0.031101	0.030195	0.029138	0.027944	0.026627	0.025207	0.023703	0.022133	0.020521	0.018886	0.01725	0.015634	0.014054	0.01253	0.011075	0.0097021	0.0084214	0.0072402	0.0061633	0.0051928	0.0043286	0.0035682	0.0029076	0.0023408	0.001861	0.0014602	0.00113	0.00086202	0.0006477	0.00047895	0.00034824	0.00024871	0.00017427	0.00011965	8.0379e-05	5.2752e-05	3.3764e-05	2.1038e-05	1.2737e-05	7.4765e-06	4.2462e-06	2.328e-06	1.2293e-06	6.2363e-07	3.0322e-07	1.4093e-07	6.2455e-08	2.6319e-08	1.0518e-08	3.9756e-09	1.4173e-09	4.7521e-10	1.4945e-10	4.3961e-11	1.2062e-11	3.0783e-12	7.2875e-13	1.596e-13	3.2247e-14	5.9949e-15	1.0227e-15	1.5969e-16	2.276e-17	2.9537e-18	3.481e-19	3.7163e-20	3.585e-21	3.1172e-22	2.4372e-23	1.7093e-24	1.0729e-25	6.0131e-27	3.0024e-28	1.3327e-29	5.248e-31	1.8296e-32	5.6364e-34	1.5315e-35	3.6638e-37	7.7046e-39	1.422e-40	2.3001e-42	3.2566e-44	4.0312e-46	4.3582e-48	4.1118e-50	3.3829e-52	2.4259e-54	1.5158e-56	8.2524e-59	3.9149e-61	1.619e-63	5.8409e-66	1.8402e-68	5.0695e-71	1.2234e-73	2.5918e-76	4.8325e-79	7.9532e-82	1.1591e-84	1.5011e-87	1.7335e-90	1.7914e-93	1.662e-96	1.3882e-99	1.0464e-102	7.134e-106	4.4064e-109	2.4697e-112	1.2582e-115	5.836e-119	2.4696e-122	9.555e-126	3.3888e-129	1.1048e-132	3.3215e-136	9.2385e-140	2.386e-143	5.7432e-147	1.2935e-150	2.7371e-154	5.4642e-158	1.0336e-161	1.861e-165	3.2037e-169	5.2974e-173	8.4541e-177	1.3084e-180	1.9734e-184	2.9152e-188	4.2392e-192	6.0995e-196	8.7286e-200	1.2489e-203	1.796e-207	2.6102e-211	3.8543e-215	5.8159e-219	9.0314e-223	1.4649e-226	2.6387e-230	6.8844e-234	4.1138e-237	4.7071e-240	6.9096e-243	1.1576e-245	2.1792e-248	4.617e-251	1.1054e-253	3.0033e-256	9.2999e-259	3.2957e-261	1.3421e-263	1.8276e-265	1.3035e-260	1.3888e-255	1.4391e-250	1.4413e-245	1.3869e-240	1.2746e-235	1.1122e-230
1.0922e-16	4.1826e-16	1.4897e-15	4.9472e-15	1.5358e-14	4.468e-14	1.2211e-13	3.1432e-13	7.639e-13	1.7579e-12	3.8423e-12	8.0087e-12	1.6e-11	3.0862e-11	5.8043e-11	1.0786e-10	2.0115e-10	3.8208e-10	7.4595e-10	1.4961e-09	3.0532e-09	6.2533e-09	1.2682e-08	2.5199e-08	4.8715e-08	9.1238e-08	1.6519e-07	2.8887e-07	4.8797e-07	7.968e-07	1.259e-06	1.9274e-06	2.8634e-06	4.1348e-06	5.8136e-06	7.973e-06	1.0685e-05	1.4019e-05	1.8039e-05	2.2807e-05	2.838e-05	3.4818e-05	4.2183e-05	5.055e-05	6.0009e-05	7.0674e-05	8.2687e-05	9.6225e-05	0.0001115	0.00012878	0.00014834	0.00017052	0.00019567	0.00022421	0.00025652	0.00029306	0.00033427	0.00038057	0.00043242	0.0004902	0.00055427	0.00062494	0.00070244	0.00078695	0.00087859	0.00097746	0.0010837	0.0011973	0.0013186	0.0014479	0.0015857	0.0017323	0.0018887	0.0020555	0.0022335	0.0024238	0.0026271	0.0028444	0.0030764	0.0033238	0.0035873	0.0038672	0.004164	0.0044778	0.0048089	0.0051574	0.0055237	0.0059082	0.0063115	0.0067345	0.0071785	0.0076449	0.0081357	0.0086529	0.0091985	0.0097745	0.010383	0.011024	0.011698	0.012404	0.013141	0.013904	0.014689	0.015489	0.016297	0.017103	0.017896	0.018667	0.019402	0.02009	0.020719	0.021277	0.021753	0.022136	0.022419	0.022592	0.022651	0.022592	0.022412	0.022112	0.021693	0.02116	0.020518	0.019775	0.01894	0.018025	0.017042	0.016004	0.014925	0.013819	0.012701	0.011585	0.010485	0.0094127	0.0083794	0.0073952	0.0064682	0.0056049	0.00481	0.0040864	0.0034355	0.0028568	0.0023487	0.001908	0.0015309	0.0012124	0.00094719	0.00072951	0.0005535	0.00041341	0.0003037	0.00021925	0.00015538	0.00010798	7.3488e-05	4.8919e-05	3.1801e-05	2.0157e-05	1.2436e-05	7.4539e-06	4.332e-06	2.4361e-06	1.3226e-06	6.9178e-07	3.4773e-07	1.6758e-07	7.7233e-08	3.3955e-08	1.4203e-08	5.6376e-09	2.1178e-09	7.5091e-10	2.5062e-10	7.8525e-11	2.3034e-11	6.3089e-12	1.6091e-12	3.8113e-13	8.3619e-14	1.6949e-14	3.1654e-15	5.4335e-16	8.5503e-17	1.2304e-17	1.6151e-18	1.9291e-19	2.0918e-20	2.0541e-21	1.8224e-22	1.4576e-23	1.0486e-24	6.7699e-26	3.9143e-27	2.0227e-28	9.3224e-30	3.8248e-31	1.3943e-32	4.5086e-34	1.2909e-35	3.2677e-37	7.302e-39	1.4385e-40	2.4954e-42	3.8074e-44	5.1049e-46	6.0101e-48	6.2093e-50	5.6273e-52	4.4726e-54	3.1178e-56	1.9066e-58	1.0234e-60	4.825e-63	2.0004e-65	7.3022e-68	2.3507e-70	6.6858e-73	1.6834e-75	3.7606e-78	7.47e-81	1.3224e-83	2.091e-86	2.9592e-89	3.7559e-92	4.2832e-95	4.3962e-98	4.0682e-101	3.4002e-104	2.5713e-107	1.7629e-110	1.0981e-113	6.2285e-117	3.2255e-120	1.5291e-123	6.6563e-127	2.6688e-130	9.8881e-134	3.3975e-137	1.0864e-140	3.2457e-144	9.0935e-148	2.399e-151	5.9838e-155	1.4172e-158	3.2007e-162	6.9238e-166	1.4411e-169	2.8993e-173	5.6645e-177	1.0799e-180	2.0186e-184	3.7178e-188	6.7807e-192	1.2308e-195	2.2347e-199	4.0799e-203	7.5292e-207	1.4125e-210	2.715e-214	5.4485e-218	1.2341e-221	4.2174e-225	3.155e-228	4.0905e-231	6.5837e-234	1.1971e-236	2.4268e-239	5.4951e-242	1.3952e-244	3.9887e-247	1.2894e-249	4.7328e-252	1.9803e-254	9.4839e-257	5.2208e-259	1.9498e-257	1.6018e-252	1.2823e-247	9.9409e-243	7.4198e-238	5.3013e-233	3.6053e-228
1.7722e-17	6.919e-17	2.5135e-16	8.517e-16	2.6985e-15	8.0139e-15	2.2361e-14	5.877e-14	1.4588e-13	3.4301e-13	7.669e-13	1.6384e-12	3.3684e-12	6.7313e-12	1.326e-11	2.6198e-11	5.2836e-11	1.1003e-10	2.3669e-10	5.2026e-10	1.1498e-09	2.515e-09	5.3807e-09	1.1171e-08	2.2407e-08	4.3318e-08	8.0655e-08	1.4465e-07	2.5006e-07	4.1716e-07	6.7246e-07	1.0491e-06	1.5866e-06	2.3302e-06	3.3296e-06	4.637e-06	6.3063e-06	8.3909e-06	1.0944e-05	1.4016e-05	1.766e-05	2.1929e-05	2.6882e-05	3.2587e-05	3.9123e-05	4.6591e-05	5.5109e-05	6.4826e-05	7.5914e-05	8.8576e-05	0.00010304	0.00011956	0.0001384	0.00015986	0.00018424	0.00021184	0.000243	0.00027802	0.00031721	0.00036085	0.0004092	0.00046247	0.00052081	0.00058433	0.0006531	0.00072714	0.00080645	0.00089105	0.00098099	0.0010764	0.0011774	0.0012844	0.0013978	0.0015179	0.0016455	0.001781	0.0019252	0.0020786	0.0022419	0.0024156	0.0026001	0.0027958	0.0030029	0.0032215	0.0034518	0.0036937	0.0039472	0.0042124	0.0044895	0.0047789	0.0050812	0.0053972	0.005728	0.0060748	0.0064392	0.0068223	0.0072254	0.0076493	0.0080943	0.0085601	0.0090453	0.009548	0.010065	0.010591	0.011123	0.011653	0.012174	0.01268	0.013161	0.013611	0.01402	0.014381	0.014687	0.01493	0.015105	0.015206	0.015231	0.015176	0.015041	0.014825	0.01453	0.014158	0.013715	0.013205	0.012635	0.012012	0.011345	0.010642	0.0099137	0.0091689	0.0084175	0.0076688	0.0069318	0.0062146	0.0055247	0.0048684	0.0042512	0.0036772	0.0031495	0.0026699	0.002239	0.0018567	0.0015217	0.0012318	0.00098435	0.00077605	0.00060322	0.00046197	0.00034833	0.00025838	0.00018839	0.0001349	9.4778e-05	6.5261e-05	4.399e-05	2.899e-05	1.8653e-05	1.17e-05	7.1422e-06	4.2359e-06	2.4362e-06	1.356e-06	7.2888e-07	3.7756e-07	1.8804e-07	8.983e-08	4.1062e-08	1.7915e-08	7.4419e-09	2.9356e-09	1.0968e-09	3.8712e-10	1.2874e-10	4.023e-11	1.1783e-11	3.226e-12	8.2348e-13	1.9548e-13	4.3043e-14	8.7688e-15	1.6487e-15	2.8538e-16	4.5366e-17	6.6072e-18	8.7956e-19	1.0677e-19	1.1792e-20	1.1822e-21	1.0736e-22	8.8119e-24	6.5234e-25	4.3469e-26	2.602e-27	1.3966e-28	6.7082e-30	2.8788e-31	1.1018e-32	3.7555e-34	1.1381e-35	3.0627e-37	7.3092e-39	1.5452e-40	2.8907e-42	4.7816e-44	6.9885e-46	9.02e-48	1.0277e-49	1.0336e-51	9.1749e-54	7.1901e-56	4.9766e-58	3.044e-60	1.6468e-62	7.887e-65	3.3478e-67	1.261e-69	4.2203e-72	1.2569e-74	3.3355e-77	7.8997e-80	1.6721e-82	3.1682e-85	5.3811e-88	8.2062e-91	1.1254e-93	1.3903e-96	1.5501e-99	1.5626e-102	1.4274e-105	1.184e-108	8.9405e-112	6.1614e-115	3.8859e-118	2.2493e-121	1.1986e-124	5.8982e-128	2.6895e-131	1.1402e-134	4.5106e-138	1.6711e-141	5.8203e-145	1.9132e-148	5.9589e-152	1.7659e-155	5.0001e-159	1.3585e-162	3.5573e-166	9.0178e-170	2.2231e-173	5.3543e-177	1.2658e-180	2.9515e-184	6.8204e-188	1.5696e-191	3.6152e-195	8.3771e-199	1.9644e-202	4.7046e-206	1.181e-209	3.4447e-213	1.5974e-216	1.5232e-219	2.2656e-222	4.0412e-225	8.0545e-228	1.7762e-230	4.3425e-233	1.1815e-235	3.5923e-238	1.2256e-240	4.7112e-243	2.0485e-245	1.0115e-247	5.6935e-250	3.667e-252	5.6387e-254	1.8513e-249	1.1431e-244	6.8486e-240	3.9588e-235	2.1955e-230	1.1617e-225
2.5778e-18	1.0253e-17	3.7965e-17	1.3117e-16	4.2391e-16	1.2844e-15	3.6572e-15	9.8122e-15	2.4878e-14	5.9819e-14	1.3708e-13	3.0149e-13	6.4308e-13	1.3505e-12	2.8475e-12	6.1513e-12	1.3802e-11	3.2169e-11	7.6855e-11	1.8464e-10	4.382e-10	1.014e-09	2.2696e-09	4.8907e-09	1.0125e-08	2.0127e-08	3.8427e-08	7.0518e-08	1.2454e-07	2.1197e-07	3.4825e-07	5.532e-07	8.5119e-07	1.2709e-06	1.8449e-06	2.6087e-06	3.5999e-06	4.8577e-06	6.422e-06	8.3334e-06	1.0634e-05	1.337e-05	1.659e-05	2.0353e-05	2.4728e-05	2.9797e-05	3.5663e-05	4.2445e-05	5.0285e-05	5.9344e-05	6.9804e-05	8.186e-05	9.5724e-05	0.00011161	0.00012975	0.00015037	0.0001737	0.00019995	0.00022935	0.00026209	0.00029835	0.00033825	0.00038191	0.00042937	0.00048065	0.00053572	0.00059453	0.00065701	0.00072313	0.00079288	0.00086628	0.00094346	0.0010246	0.00111	0.0011999	0.0012949	0.0013952	0.0015013	0.0016138	0.0017329	0.001859	0.0019924	0.0021333	0.0022818	0.0024378	0.0026013	0.0027722	0.0029504	0.003136	0.0033291	0.0035297	0.0037385	0.003956	0.0041829	0.0044201	0.0046685	0.0049289	0.0052021	0.0054884	0.0057876	0.0060992	0.0064219	0.0067538	0.0070921	0.0074336	0.0077742	0.0081095	0.0084344	0.0087437	0.0090321	0.0092941	0.0095244	0.0097183	0.0098712	0.0099792	0.010039	0.010048	0.010006	0.0099098	0.0097611	0.0095606	0.0093102	0.0090126	0.0086715	0.0082911	0.0078766	0.0074333	0.0069674	0.0064849	0.0059923	0.0054959	0.0050019	0.004516	0.0040438	0.0035899	0.0031587	0.0027535	0.0023771	0.0020315	0.0017178	0.0014365	0.0011873	0.00096948	0.00078153	0.0006216	0.00048749	0.0003767	0.00028662	0.00021457	0.00015792	0.00011418	8.1023e-05	5.6378e-05	3.8429e-05	2.5632e-05	1.6709e-05	1.0632e-05	6.5944e-06	3.9806e-06	2.3347e-06	1.3281e-06	7.3139e-07	3.8914e-07	1.9961e-07	9.8495e-08	4.6646e-08	2.1152e-08	9.1617e-09	3.781e-09	1.4831e-09	5.515e-10	1.9392e-10	6.4316e-11	2.0067e-11	5.8755e-12	1.6102e-12	4.1198e-13	9.8171e-14	2.1733e-14	4.4587e-15	8.457e-16	1.4795e-16	2.3817e-17	3.5199e-18	4.7651e-19	5.896e-20	6.6532e-21	6.8325e-22	6.3724e-23	5.3869e-24	4.1193e-25	2.8441e-26	1.7697e-27	9.9073e-29	4.9815e-30	2.2461e-31	9.068e-33	3.2734e-34	1.0552e-35	3.0337e-37	7.771e-39	1.7718e-40	3.5928e-42	6.475e-44	1.0365e-45	1.4733e-47	1.859e-49	2.0819e-51	2.0696e-53	1.8265e-55	1.4315e-57	9.9685e-60	6.1712e-62	3.3986e-64	1.6664e-66	7.2809e-69	2.8374e-71	9.8728e-74	3.0706e-76	8.5461e-79	2.1312e-81	4.7686e-84	9.5867e-87	1.7344e-89	2.8282e-92	4.1646e-95	5.5482e-98	6.7009e-101	7.3531e-104	7.3483e-107	6.7042e-110	5.5988e-113	4.2915e-116	3.028e-119	1.9726e-122	1.1902e-125	6.6723e-129	3.4874e-132	1.7053e-135	7.8293e-139	3.3874e-142	1.3864e-145	5.3885e-149	1.9968e-152	7.0837e-156	2.4157e-159	7.9529e-163	2.5386e-166	7.8915e-170	2.3997e-173	7.1709e-177	2.1155e-180	6.19e-184	1.8052e-187	5.2738e-191	1.5534e-194	4.6696e-198	1.488e-201	5.7754e-205	3.7541e-208	4.5848e-211	7.8818e-214	1.5727e-216	3.4682e-219	8.3985e-222	2.2384e-224	6.5912e-227	2.153e-229	7.8332e-232	3.1869e-234	1.4555e-236	7.4921e-239	4.3625e-241	2.8842e-243	2.173e-245	1.8727e-247	2.1395e-246	1.0166e-241	4.7002e-237	2.1011e-232	9.0312e-228	3.7129e-223
3.3471e-19	1.3552e-18	5.1106e-18	1.7992e-17	5.9265e-17	1.831e-16	5.3186e-16	1.4568e-15	3.7758e-15	9.3066e-15	2.1974e-14	5.0266e-14	1.1329e-13	2.5721e-13	6.0218e-13	1.4751e-12	3.772e-12	9.8956e-12	2.6036e-11	6.7381e-11	1.6925e-10	4.0941e-10	9.4982e-10	2.1098e-09	4.4855e-09	9.1324e-09	1.7824e-08	3.3389e-08	6.0127e-08	1.0425e-07	1.7435e-07	2.8173e-07	4.4068e-07	6.6853e-07	9.8547e-07	1.4143e-06	1.9799e-06	2.7092e-06	3.6303e-06	4.7731e-06	6.1698e-06	7.8556e-06	9.8704e-06	1.2261e-05	1.5084e-05	1.8406e-05	2.2311e-05	2.6895e-05	3.2272e-05	3.8574e-05	4.5943e-05	5.4536e-05	6.4516e-05	7.6053e-05	8.9318e-05	0.00010448	0.00012171	0.00014116	0.00016299	0.00018733	0.00021428	0.00024394	0.00027637	0.00031157	0.00034953	0.0003902	0.00043349	0.0004793	0.00052753	0.00057809	0.00063095	0.00068608	0.00074355	0.00080347	0.00086601	0.00093141	0.00099993	0.0010719	0.0011476	0.0012272	0.0013112	0.0013996	0.0014927	0.0015904	0.0016928	0.0017999	0.0019115	0.0020276	0.002148	0.0022728	0.0024021	0.0025359	0.0026746	0.0028187	0.0029686	0.003125	0.0032885	0.0034595	0.0036383	0.0038252	0.0040197	0.0042212	0.0044286	0.0046403	0.0048543	0.0050681	0.0052787	0.0054832	0.005678	0.0058598	0.0060249	0.0061702	0.0062922	0.0063881	0.0064554	0.006492	0.0064961	0.0064666	0.0064031	0.0063055	0.0061744	0.0060112	0.0058174	0.0055955	0.0053483	0.0050789	0.0047909	0.0044883	0.0041751	0.0038554	0.0035333	0.0032128	0.0028977	0.0025916	0.0022975	0.0020182	0.001756	0.0015127	0.0012895	0.0010872	0.00090617	0.00074618	0.00060666	0.00048668	0.00038499	0.0003001	0.00023035	0.00017398	0.0001292	9.4264e-05	6.7518e-05	4.7437e-05	3.2662e-05	2.202e-05	1.452e-05	9.3552e-06	5.8824e-06	3.605e-06	2.1503e-06	1.2465e-06	7.0098e-07	3.8178e-07	2.0099e-07	1.0207e-07	4.9894e-08	2.3425e-08	1.0539e-08	4.5327e-09	1.8592e-09	7.2548e-10	2.6865e-10	9.4178e-11	3.1176e-11	9.7209e-12	2.8481e-12	7.8217e-13	2.0085e-13	4.8111e-14	1.0724e-14	2.2194e-15	4.2543e-16	7.5368e-17	1.2312e-17	1.8505e-18	2.5537e-19	3.2287e-20	3.7325e-21	3.9373e-22	3.7826e-23	3.3034e-24	2.6176e-25	1.8788e-26	1.2194e-27	7.1446e-29	3.7735e-30	1.7939e-31	7.6658e-33	2.9408e-34	1.0116e-35	3.1171e-37	8.5952e-39	2.1191e-40	4.6679e-42	9.1814e-44	1.6117e-45	2.524e-47	3.5254e-49	4.3912e-51	4.8776e-53	4.8318e-55	4.2696e-57	3.3665e-59	2.3694e-61	1.4894e-63	8.3668e-66	4.2032e-68	1.8899e-70	7.6118e-73	2.7492e-75	8.9134e-78	2.5974e-80	6.8121e-83	1.6102e-85	3.4357e-88	6.6288e-91	1.1586e-93	1.8378e-96	2.6516e-99	3.4872e-102	4.1902e-105	4.6114e-108	4.6601e-111	4.3361e-114	3.7254e-117	2.964e-120	2.1905e-123	1.5086e-126	9.7125e-130	5.8657e-133	3.3346e-136	1.7908e-139	9.1187e-143	4.419e-146	2.046e-149	9.0865e-153	3.8863e-156	1.6073e-159	6.4555e-163	2.5285e-166	9.7002e-170	3.661e-173	1.3655e-176	5.057e-180	1.8695e-183	6.9526e-187	2.648e-190	1.0953e-193	5.9059e-197	5.4922e-200	8.5235e-203	1.6997e-205	3.8246e-208	9.4128e-211	2.5252e-213	7.4043e-216	2.3818e-218	8.4388e-221	3.3063e-223	1.4381e-225	6.9704e-228	3.7795e-230	2.301e-232	1.5786e-234	1.2249e-236	1.0787e-238	1.0817e-240	1.4854e-242	8.9938e-239	3.2049e-234	1.1065e-229	3.6815e-225	1.1744e-220
3.8628e-20	1.5906e-19	6.104e-19	2.1878e-18	7.341e-18	2.3116e-17	6.8507e-17	1.9178e-16	5.0974e-16	1.2969e-15	3.1992e-15	7.8036e-15	1.9318e-14	4.9804e-14	1.3545e-13	3.8551e-13	1.1216e-12	3.2509e-12	9.2034e-12	2.5135e-11	6.5771e-11	1.6438e-10	3.9198e-10	8.9192e-10	1.9381e-09	4.0268e-09	8.0107e-09	1.5283e-08	2.8009e-08	4.9397e-08	8.3983e-08	1.379e-07	2.191e-07	3.3747e-07	5.0489e-07	7.3512e-07	1.0437e-06	1.4478e-06	1.9663e-06	2.6196e-06	3.4304e-06	4.4244e-06	5.6315e-06	7.0874e-06	8.8353e-06	1.0928e-05	1.3431e-05	1.642e-05	1.9986e-05	2.4231e-05	2.9272e-05	3.5229e-05	4.2235e-05	5.0421e-05	5.9919e-05	7.086e-05	8.3367e-05	9.7557e-05	0.00011353	0.00013139	0.0001512	0.00017301	0.00019685	0.00022271	0.00025055	0.00028032	0.0003119	0.00034521	0.0003801	0.00041646	0.0004542	0.00049324	0.00053354	0.00057513	0.00061806	0.00066245	0.00070843	0.0007562	0.00080594	0.00085784	0.0009121	0.00096885	0.0010282	0.0010903	0.001155	0.0012225	0.0012926	0.0013653	0.0014404	0.001518	0.0015981	0.0016807	0.001766	0.0018542	0.0019458	0.0020409	0.00214	0.0022436	0.0023518	0.0024647	0.0025824	0.0027045	0.0028304	0.0029592	0.0030898	0.0032206	0.0033499	0.0034757	0.0035961	0.0037087	0.0038115	0.0039022	0.0039787	0.0040392	0.004082	0.0041057	0.004109	0.0040913	0.0040522	0.0039914	0.0039094	0.0038069	0.0036848	0.0035447	0.0033883	0.0032176	0.0030349	0.0028427	0.0026434	0.0024399	0.0022347	0.0020304	0.0018295	0.0016342	0.0014466	0.0012685	0.0011014	0.00094645	0.00080447	0.00067602	0.00056128	0.00046016	0.00037228	0.000297	0.0002335	0.00018077	0.00013772	0.00010316	7.5933e-05	5.4874e-05	3.8905e-05	2.7039e-05	1.8407e-05	1.2263e-05	7.9879e-06	5.0824e-06	3.1554e-06	1.9093e-06	1.1245e-06	6.4378e-07	3.577e-07	1.9256e-07	1.0026e-07	5.039e-08	2.4396e-08	1.1353e-08	5.0676e-09	2.1644e-09	8.8247e-10	3.4267e-10	1.2642e-10	4.4202e-11	1.4613e-11	4.5566e-12	1.337e-12	3.6825e-13	9.4992e-14	2.2896e-14	5.1447e-15	1.0753e-15	2.0858e-16	3.7471e-17	6.2208e-18	9.5241e-19	1.342e-19	1.7368e-20	2.0606e-21	2.237e-22	2.218e-23	2.005e-24	1.6496e-25	1.2333e-26	8.365e-28	5.1397e-29	2.8567e-30	1.4343e-31	6.4978e-33	2.6527e-34	9.7491e-36	3.2222e-37	9.5689e-39	2.5513e-40	6.1028e-42	1.309e-43	2.5161e-45	4.333e-47	6.6829e-49	9.2298e-51	1.1414e-52	1.2639e-54	1.2533e-56	1.1133e-58	8.8613e-61	6.3229e-63	4.0467e-65	2.3246e-67	1.1994e-69	5.5634e-72	2.3222e-74	8.7323e-77	2.9617e-79	9.0721e-82	2.5134e-84	6.3079e-87	1.4365e-89	2.9738e-92	5.6072e-95	9.6491e-98	1.5187e-100	2.1914e-103	2.9058e-106	3.5496e-109	4.0053e-112	4.186e-115	4.0638e-118	3.6754e-121	3.1065e-124	2.4614e-127	1.8343e-130	1.29e-133	8.5911e-137	5.4374e-140	3.2825e-143	1.8972e-146	1.0538e-149	5.6475e-153	2.9316e-156	1.4801e-159	7.2979e-163	3.5291e-166	1.6811e-169	7.9258e-173	3.7209e-176	1.7584e-179	8.6118e-183	4.7905e-186	3.7648e-189	4.9958e-192	9.6902e-195	2.245e-197	5.7369e-200	1.5883e-202	4.7597e-205	1.5484e-207	5.4891e-210	2.1286e-212	9.0646e-215	4.2552e-217	2.2102e-219	1.2751e-221	8.1993e-224	5.8984e-226	4.7636e-228	4.3339e-230	4.4568e-232	5.1978e-234	6.8972e-236	8.0014e-236	2.1654e-231	5.7672e-227	1.4836e-222	3.668e-218
3.9457e-21	1.6507e-20	6.4402e-20	2.3484e-19	8.0236e-19	2.576e-18	7.8022e-18	2.2426e-17	6.176e-17	1.6557e-16	4.4264e-16	1.2168e-15	3.5301e-15	1.0873e-14	3.4909e-14	1.1341e-13	3.6298e-13	1.1242e-12	3.3354e-12	9.4322e-12	2.5374e-11	6.4912e-11	1.5802e-10	3.6644e-10	8.1061e-10	1.7132e-09	3.4651e-09	6.7183e-09	1.2509e-08	2.2406e-08	3.868e-08	6.4475e-08	1.0396e-07	1.6248e-07	2.4657e-07	3.6407e-07	5.2406e-07	7.3688e-07	1.0142e-06	1.3692e-06	1.8168e-06	2.3747e-06	3.0638e-06	3.9097e-06	4.9443e-06	6.2069e-06	7.746e-06	9.6204e-06	1.19e-05	1.4663e-05	1.8001e-05	2.2009e-05	2.6789e-05	3.2445e-05	3.9082e-05	4.6798e-05	5.5688e-05	6.5838e-05	7.7323e-05	9.0207e-05	0.00010454	0.00012034	0.00013762	0.00015638	0.00017655	0.00019808	0.00022088	0.00024484	0.00026983	0.00029574	0.00032244	0.00034983	0.00037783	0.00040639	0.00043551	0.00046521	0.00049555	0.00052661	0.00055851	0.00059137	0.00062529	0.0006604	0.00069678	0.00073451	0.00077363	0.00081415	0.00085606	0.00089934	0.00094396	0.0009899	0.0010372	0.0010858	0.0011359	0.0011876	0.0012411	0.0012966	0.0013544	0.0014147	0.0014777	0.0015436	0.0016124	0.0016839	0.0017579	0.001834	0.0019114	0.0019893	0.0020668	0.0021426	0.0022156	0.0022844	0.0023476	0.0024039	0.002452	0.0024905	0.0025185	0.002535	0.0025391	0.0025303	0.0025082	0.0024727	0.0024239	0.0023621	0.002288	0.0022023	0.0021062	0.0020009	0.0018878	0.0017684	0.0016443	0.0015173	0.001389	0.0012612	0.0011352	0.0010127	0.00089503	0.00078327	0.00067844	0.00058132	0.00049247	0.00041224	0.00034077	0.00027799	0.00022364	0.00017731	0.00013844	0.00010637	8.0372e-05	5.967e-05	4.3499e-05	3.1112e-05	2.1817e-05	1.4988e-05	1.008e-05	6.6308e-06	4.2631e-06	2.6765e-06	1.6393e-06	9.7857e-07	5.6864e-07	3.2126e-07	1.7622e-07	9.3706e-08	4.8222e-08	2.3972e-08	1.1489e-08	5.2981e-09	2.3455e-09	9.9464e-10	4.0311e-10	1.5577e-10	5.7258e-11	1.9973e-11	6.5963e-12	2.0577e-12	6.049e-13	1.6719e-13	4.335e-14	1.0521e-14	2.3846e-15	5.0373e-16	9.8957e-17	1.8042e-17	3.0466e-18	4.7553e-19	6.8478e-20	9.0803e-21	1.1067e-21	1.2376e-22	1.2676e-23	1.1871e-24	1.015e-25	7.9102e-27	5.6109e-28	3.6173e-29	2.1168e-30	1.1229e-31	5.3934e-33	2.3431e-34	9.197e-36	3.2587e-37	1.0414e-38	2.9994e-40	7.7804e-42	1.8167e-43	3.8164e-45	7.2107e-47	1.2249e-48	1.8706e-50	2.5676e-52	3.1681e-54	3.5141e-56	3.505e-58	3.1445e-60	2.5386e-62	1.8452e-64	1.2083e-66	7.1335e-69	3.8004e-71	1.8288e-73	7.9574e-76	3.1346e-78	1.1193e-80	3.6285e-83	1.0694e-85	2.8705e-88	7.0295e-91	1.5735e-93	3.2258e-96	6.07e-99	1.0507e-101	1.6768e-104	2.4736e-107	3.3813e-110	4.2947e-113	5.0822e-116	5.6195e-119	5.8233e-122	5.6726e-125	5.211e-128	4.529e-131	3.7367e-134	2.9366e-137	2.2061e-140	1.59e-143	1.1035e-146	7.4022e-150	4.8178e-153	3.0547e-156	1.8944e-159	1.1541e-162	6.9436e-166	4.1585e-169	2.5233e-172	1.6312e-175	1.2861e-178	1.5245e-181	2.8039e-184	6.6687e-187	1.7967e-189	5.2466e-192	1.6459e-194	5.5518e-197	2.0198e-199	7.9555e-202	3.4051e-204	1.5898e-206	8.1271e-209	4.5655e-211	2.8287e-213	1.9399e-215	1.4778e-217	1.2548e-219	1.1916e-221	1.2698e-223	1.5234e-225	2.0641e-227	3.1685e-229	5.8938e-231	1.4548e-228	2.968e-224	5.8976e-220	1.1289e-215
3.5518e-22	1.5083e-21	5.9782e-21	2.2173e-20	7.7203e-20	2.5351e-19	7.9095e-19	2.3747e-18	7.0071e-18	2.0958e-17	6.5732e-17	2.204e-16	7.8284e-16	2.8569e-15	1.0369e-14	3.6549e-14	1.2342e-13	3.9653e-13	1.2086e-12	3.4917e-12	9.5671e-12	2.4885e-11	6.1531e-11	1.4485e-10	3.2518e-10	6.9731e-10	1.4309e-09	2.8144e-09	5.3158e-09	9.6586e-09	1.6913e-08	2.8593e-08	4.6758e-08	7.4098e-08	1.1401e-07	1.7065e-07	2.4898e-07	3.5483e-07	4.9495e-07	6.7725e-07	9.1104e-07	1.2076e-06	1.5807e-06	2.0479e-06	2.6312e-06	3.3585e-06	4.2649e-06	5.3932e-06	6.7948e-06	8.5297e-06	1.0665e-05	1.3276e-05	1.644e-05	2.0237e-05	2.4748e-05	3.005e-05	3.6216e-05	4.3309e-05	5.1386e-05	6.049e-05	7.0653e-05	8.1892e-05	9.4205e-05	0.00010757	0.00012196	0.0001373	0.00015352	0.00017052	0.00018819	0.00020642	0.00022509	0.0002441	0.00026334	0.00028274	0.00030225	0.00032185	0.00034152	0.00036131	0.00038125	0.00040141	0.00042185	0.00044267	0.00046392	0.00048567	0.00050797	0.00053088	0.0005544	0.00057857	0.0006034	0.00062889	0.00065508	0.000682	0.00070972	0.00073832	0.00076793	0.0007987	0.00083077	0.0008643	0.00089945	0.00093633	0.00097498	0.0010154	0.0010574	0.0011009	0.0011455	0.0011907	0.001236	0.0012807	0.0013242	0.0013657	0.0014042	0.0014391	0.0014694	0.0014943	0.0015132	0.0015253	0.0015302	0.0015273	0.0015163	0.0014971	0.0014697	0.0014342	0.001391	0.0013404	0.0012832	0.00122	0.0011517	0.0010793	0.0010037	0.00092607	0.00084742	0.00076883	0.00069131	0.00061582	0.00054323	0.0004743	0.00040968	0.00034988	0.00029527	0.00024609	0.00020242	0.00016421	0.00013129	0.00010338	8.0109e-05	6.1048e-05	4.5716e-05	3.3617e-05	2.4255e-05	1.7159e-05	1.1893e-05	8.0708e-06	5.3584e-06	3.4781e-06	2.2055e-06	1.3652e-06	8.2426e-07	4.8497e-07	2.7779e-07	1.5474e-07	8.3716e-08	4.393e-08	2.2325e-08	1.0968e-08	5.2002e-09	2.3745e-09	1.0421e-09	4.3857e-10	1.7662e-10	6.7901e-11	2.4865e-11	8.6528e-12	2.8549e-12	8.9101e-13	2.6247e-13	7.2811e-14	1.898e-14	4.6394e-15	1.0611e-15	2.2662e-16	4.5102e-17	8.3483e-18	1.4344e-18	2.2834e-19	3.3617e-20	4.5687e-21	5.7219e-22	6.5928e-23	6.977e-24	6.771e-25	6.0166e-26	4.8881e-27	3.6259e-28	2.4524e-29	1.5105e-30	8.4621e-32	4.3072e-33	1.9898e-34	8.3351e-36	3.163e-37	1.0865e-38	3.3762e-40	9.4837e-42	2.4069e-43	5.5166e-45	1.1415e-46	2.1317e-48	3.5923e-50	5.4623e-52	7.4946e-54	9.2799e-56	1.0372e-57	1.0467e-59	9.5421e-62	7.8621e-64	5.8585e-66	3.9511e-68	2.4138e-70	1.337e-72	6.7225e-75	3.0716e-77	1.277e-79	4.8379e-82	1.6726e-84	5.2858e-87	1.5295e-89	4.0602e-92	9.9064e-95	2.2262e-97	4.6177e-100	8.8613e-103	1.5769e-105	2.6087e-108	4.0223e-111	5.796e-114	7.8267e-117	9.9331e-120	1.1883e-122	1.3442e-125	1.4421e-128	1.4723e-131	1.4351e-134	1.3401e-137	1.2031e-140	1.042e-143	8.7395e-147	7.125e-150	5.6694e-153	4.4236e-156	3.4071e-159	2.6237e-162	2.0858e-165	1.864e-168	2.2112e-171	3.9347e-174	9.5871e-177	2.7507e-179	8.629e-182	2.8958e-184	1.0362e-186	3.9619e-189	1.6238e-191	7.16e-194	3.4093e-196	1.7594e-198	9.8765e-201	6.0524e-203	4.0634e-205	2.9991e-207	2.442e-209	2.2009e-211	2.2031e-213	2.4571e-215	3.0634e-217	4.2826e-219	6.7338e-221	1.1946e-222	2.5913e-224	5.2108e-224	1.6551e-221	2.3076e-217	3.416e-213
2.8067e-23	1.209e-22	4.8702e-22	1.8416e-21	6.5781e-21	2.2434e-20	7.4438e-20	2.4757e-19	8.5695e-19	3.177e-18	1.2607e-17	5.2005e-17	2.1491e-16	8.6487e-16	3.3331e-15	1.2197e-14	4.2231e-14	1.3819e-13	4.2752e-13	1.2517e-12	3.4724e-12	9.1426e-12	2.2882e-11	5.4528e-11	1.2394e-10	2.6914e-10	5.5937e-10	1.1146e-09	2.1331e-09	3.9274e-09	6.9696e-09	1.1942e-08	1.9792e-08	3.1788e-08	4.957e-08	7.5196e-08	1.1119e-07	1.6061e-07	2.2712e-07	3.1513e-07	4.3008e-07	5.7873e-07	7.6974e-07	1.0143e-06	1.3269e-06	1.7265e-06	2.2371e-06	2.8886e-06	3.7176e-06	4.7672e-06	6.0868e-06	7.7311e-06	9.7586e-06	1.223e-05	1.5207e-05	1.8747e-05	2.2906e-05	2.7733e-05	3.3269e-05	3.9546e-05	4.6586e-05	5.4399e-05	6.298e-05	7.2313e-05	8.2363e-05	9.3081e-05	0.0001044	0.00011625	0.00012854	0.00014116	0.00015402	0.00016702	0.00018006	0.00019306	0.00020594	0.00021866	0.00023119	0.00024352	0.00025564	0.0002676	0.00027941	0.00029115	0.00030285	0.00031457	0.00032637	0.00033831	0.00035044	0.00036279	0.00037542	0.00038836	0.00040165	0.00041535	0.0004295	0.00044417	0.00045944	0.00047539	0.00049214	0.00050976	0.00052836	0.00054802	0.0005688	0.0005907	0.00061371	0.00063772	0.0006626	0.00068812	0.000714	0.00073991	0.00076543	0.00079012	0.00081349	0.00083504	0.00085424	0.00087059	0.00088359	0.00089279	0.0008978	0.00089827	0.00089396	0.00088469	0.0008704	0.00085112	0.00082699	0.00079826	0.00076526	0.00072842	0.00068827	0.00064536	0.00060034	0.00055386	0.0005066	0.00045923	0.00041241	0.00036675	0.00032281	0.0002811	0.00024202	0.00020592	0.00017303	0.0001435	0.00011739	9.4645e-05	7.516e-05	5.8744e-05	4.5155e-05	3.4111e-05	2.5304e-05	1.8419e-05	1.3147e-05	9.1945e-06	6.2959e-06	4.2182e-06	2.7633e-06	1.7687e-06	1.1055e-06	6.7418e-07	4.0092e-07	2.323e-07	1.3103e-07	7.1888e-08	3.8319e-08	1.9821e-08	9.9357e-09	4.8191e-09	2.2578e-09	1.0199e-09	4.4328e-10	1.8501e-10	7.3981e-11	2.8282e-11	1.0313e-11	3.579e-12	1.1794e-12	3.682e-13	1.0867e-13	3.0257e-14	7.9296e-15	1.9522e-15	4.5056e-16	9.7292e-17	1.9618e-17	3.6869e-18	6.4462e-19	1.0466e-19	1.5753e-20	2.1943e-21	2.8239e-22	3.3522e-23	3.665e-24	3.685e-25	3.4023e-26	2.8807e-27	2.2338e-28	1.5843e-29	1.0266e-30	6.0703e-32	3.2721e-33	1.6063e-34	7.1744e-36	2.9133e-37	1.0746e-38	3.5988e-40	1.0934e-41	3.0127e-43	7.5243e-45	1.7029e-46	3.4914e-48	6.4842e-50	1.0907e-51	1.662e-53	2.2941e-55	2.8695e-57	3.2534e-59	3.3449e-61	3.1204e-63	2.6428e-65	2.0337e-67	1.4231e-69	9.0642e-72	5.2605e-74	2.785e-76	1.3467e-78	5.9564e-81	2.4132e-83	8.9696e-86	3.0639e-88	9.6353e-91	2.795e-93	7.4933e-96	1.8607e-98	4.2886e-101	9.1964e-104	1.8391e-106	3.4387e-109	6.0266e-112	9.9273e-115	1.5412e-117	2.2617e-120	3.1463e-123	4.162e-126	5.2517e-129	6.3413e-132	7.3516e-135	8.2107e-138	8.8659e-141	9.2908e-144	9.4901e-147	9.5053e-150	9.4343e-153	9.5034e-156	1.0309e-158	1.3617e-161	2.5073e-164	6.3722e-167	1.9688e-169	6.7402e-172	2.4666e-174	9.562e-177	3.9266e-179	1.7126e-181	7.9602e-184	3.9571e-186	2.1113e-188	1.2134e-190	7.5385e-193	5.0802e-195	3.7265e-197	2.9855e-199	2.6212e-201	2.5304e-203	2.6946e-205	3.1754e-207	4.1541e-209	6.0514e-211	9.8457e-213	1.7944e-214	3.6745e-216	9.4905e-218	2.3796e-217	6.2205e-216	2.7419e-214	1.0206e-210
1.9426e-24	8.5069e-24	3.505e-23	1.3724e-22	5.1992e-22	1.963e-21	7.6845e-21	3.2247e-20	1.4554e-19	6.8615e-19	3.2478e-18	1.4966e-17	6.5926e-17	2.7508e-16	1.0831e-15	4.0193e-15	1.4063e-14	4.6434e-14	1.4488e-13	4.2781e-13	1.1974e-12	3.1822e-12	8.0423e-12	1.9363e-11	4.4483e-11	9.7682e-11	2.0538e-10	4.1413e-10	8.0225e-10	1.4956e-09	2.6878e-09	4.6646e-09	7.8314e-09	1.2743e-08	2.0133e-08	3.095e-08	4.6385e-08	6.7928e-08	9.7429e-08	1.3721e-07	1.9022e-07	2.6032e-07	3.5258e-07	4.7382e-07	6.3315e-07	8.4262e-07	1.118e-06	1.4792e-06	1.9511e-06	2.5633e-06	3.3504e-06	4.3513e-06	5.6082e-06	7.1654e-06	9.0679e-06	1.1359e-05	1.4081e-05	1.7269e-05	2.0956e-05	2.5163e-05	2.9908e-05	3.5197e-05	4.1025e-05	4.7378e-05	5.423e-05	6.1544e-05	6.9268e-05	7.7343e-05	8.57e-05	9.4259e-05	0.00010294	0.00011165	0.00012032	0.00012887	0.00013722	0.00014532	0.00015313	0.00016062	0.00016777	0.00017459	0.00018109	0.00018731	0.00019328	0.00019904	0.00020466	0.00021019	0.00021569	0.0002212	0.0002268	0.00023252	0.00023843	0.00024456	0.00025097	0.00025772	0.00026484	0.0002724	0.00028047	0.00028908	0.00029831	0.00030821	0.00031882	0.00033016	0.00034225	0.00035505	0.00036851	0.00038253	0.00039699	0.00041171	0.00042647	0.00044103	0.00045511	0.00046841	0.0004806	0.00049136	0.00050037	0.00050732	0.00051192	0.00051393	0.00051315	0.00050942	0.00050267	0.00049287	0.00048007	0.00046439	0.00044601	0.00042517	0.00040218	0.00037739	0.00035117	0.00032395	0.00029614	0.00026818	0.00024047	0.00021342	0.00018737	0.00016265	0.00013953	0.00011822	9.8863e-05	8.155e-05	6.6308e-05	5.3108e-05	4.187e-05	3.2468e-05	2.4745e-05	1.8523e-05	1.3606e-05	9.8011e-06	6.9181e-06	4.7815e-06	3.2336e-06	2.1382e-06	1.3815e-06	8.7168e-07	5.3672e-07	3.2231e-07	1.8866e-07	1.0756e-07	5.969e-08	3.2219e-08	1.69e-08	8.6058e-09	4.2493e-09	2.0318e-09	9.393e-10	4.1915e-10	1.8021e-10	7.4495e-11	2.9549e-11	1.1222e-11	4.0715e-12	1.4081e-12	4.6318e-13	1.4459e-13	4.2742e-14	1.194e-14	3.1454e-15	7.798e-16	1.8159e-16	3.9642e-17	8.0978e-18	1.5451e-18	2.7486e-19	4.5512e-20	7.0027e-21	9.9958e-22	1.3216e-22	1.6161e-23	1.825e-24	1.9006e-25	1.8228e-26	1.6079e-27	1.3029e-28	9.6862e-30	6.5997e-31	4.1167e-32	2.3486e-33	1.2244e-34	5.8273e-36	2.5302e-37	1.0015e-38	3.6116e-40	1.186e-41	3.5445e-43	9.6379e-45	2.3836e-46	5.3607e-48	1.0962e-49	2.038e-51	3.4454e-53	5.297e-55	7.4079e-57	9.4271e-59	1.0921e-60	1.1524e-62	1.1084e-64	9.723e-67	7.7862e-69	5.6972e-71	3.813e-73	2.3368e-75	1.3131e-77	6.7737e-80	3.2127e-82	1.4031e-84	5.6519e-87	2.1035e-89	7.2467e-92	2.3154e-94	6.8748e-97	1.9011e-99	4.9068e-102	1.1849e-104	2.6832e-107	5.7128e-110	1.1465e-112	2.1747e-115	3.9096e-118	6.6804e-121	1.0882e-123	1.6948e-126	2.5321e-129	3.6406e-132	5.0555e-135	6.8087e-138	8.9444e-141	1.1572e-143	1.5047e-146	2.0603e-149	3.2636e-152	6.7314e-155	1.8612e-157	6.315e-160	2.3978e-162	9.7378e-165	4.1676e-167	1.8751e-169	8.8843e-172	4.446e-174	2.358e-176	1.3299e-178	8.0044e-181	5.1588e-183	3.5726e-185	2.6674e-187	2.1544e-189	1.8885e-191	1.8027e-193	1.8798e-195	2.1482e-197	2.6987e-199	3.7386e-201	5.7285e-203	9.7369e-205	1.8413e-206	3.8846e-208	9.1709e-210	2.8544e-211	8.89e-211	2.0596e-209	5.4277e-208	1.6392e-206
1.1889e-25	5.3916e-25	2.3644e-24	1.0347e-23	4.7092e-23	2.3032e-22	1.2103e-21	6.6145e-21	3.61e-20	1.909e-19	9.6136e-19	4.5717e-18	2.0459e-17	8.6084e-17	3.4068e-16	1.2694e-15	4.4592e-15	1.4789e-14	4.6381e-14	1.3776e-13	3.8817e-13	1.0392e-12	2.6481e-12	6.4322e-12	1.4918e-11	3.309e-11	7.0312e-11	1.4335e-10	2.8089e-10	5.2983e-10	9.6371e-10	1.6932e-09	2.8785e-09	4.7438e-09	7.5932e-09	1.1829e-08	1.7974e-08	2.6703e-08	3.8888e-08	5.5669e-08	7.8564e-08	1.0963e-07	1.5172e-07	2.0874e-07	2.8611e-07	3.9118e-07	5.3373e-07	7.2647e-07	9.8539e-07	1.33e-06	1.7835e-06	2.3722e-06	3.1252e-06	4.0735e-06	5.2491e-06	6.6835e-06	8.4065e-06	1.0445e-05	1.2822e-05	1.5555e-05	1.8655e-05	2.2128e-05	2.597e-05	3.017e-05	3.471e-05	3.9561e-05	4.4686e-05	5.0041e-05	5.5574e-05	6.1226e-05	6.6934e-05	7.2632e-05	7.8254e-05	8.3738e-05	8.9022e-05	9.4056e-05	9.8796e-05	0.00010321	0.00010728	0.000111	0.00011437	0.0001174	0.00012014	0.00012261	0.00012485	0.00012693	0.00012889	0.00013078	0.00013267	0.0001346	0.00013663	0.0001388	0.00014115	0.00014373	0.00014656	0.00014969	0.00015315	0.00015697	0.00016118	0.00016583	0.00017093	0.00017651	0.00018259	0.00018916	0.00019622	0.00020372	0.00021162	0.00021983	0.00022825	0.00023674	0.00024515	0.0002533	0.00026099	0.00026803	0.00027419	0.00027928	0.0002831	0.00028548	0.00028625	0.0002853	0.00028256	0.00027797	0.00027156	0.00026336	0.00025348	0.00024205	0.00022924	0.00021528	0.00020038	0.0001848	0.00016881	0.00015268	0.00013665	0.00012099	0.00010591	9.1619e-05	7.8275e-05	6.601e-05	5.4912e-05	4.5032e-05	3.6381e-05	2.8935e-05	2.2639e-05	1.7412e-05	1.3155e-05	9.7544e-06	7.094e-06	5.0561e-06	3.5289e-06	2.4102e-06	1.6096e-06	1.0504e-06	6.6937e-07	4.1626e-07	2.5245e-07	1.4924e-07	8.594e-08	4.8184e-08	2.6288e-08	1.3947e-08	7.1904e-09	3.5996e-09	1.7481e-09	8.2261e-10	3.7461e-10	1.6485e-10	6.9982e-11	2.8607e-11	1.1238e-11	4.234e-12	1.5265e-12	5.2556e-13	1.724e-13	5.377e-14	1.591e-14	4.457e-15	1.1797e-15	2.9442e-16	6.9157e-17	1.526e-17	3.1574e-18	6.115e-19	1.1067e-19	1.8686e-20	2.9387e-21	4.2982e-22	5.8377e-23	7.3521e-24	8.574e-25	9.2465e-26	9.2095e-27	8.4611e-28	7.1621e-29	5.5795e-30	3.996e-31	2.6285e-32	1.5865e-33	8.779e-35	4.4502e-36	2.0651e-37	8.7664e-39	3.4025e-40	1.2068e-41	3.9101e-43	1.1568e-44	3.1245e-46	7.7028e-48	1.7331e-49	3.559e-51	6.6708e-53	1.1414e-54	1.7835e-56	2.5456e-58	3.3205e-60	3.9604e-62	4.3219e-64	4.3184e-66	3.9542e-68	3.321e-70	2.561e-72	1.8152e-74	1.1841e-76	7.118e-79	3.9484e-81	2.0241e-83	9.6051e-86	4.2262e-88	1.7272e-90	6.5693e-93	2.3298e-95	7.7204e-98	2.3956e-100	6.9763e-103	1.9111e-105	4.9366e-108	1.2055e-110	2.7901e-113	6.1368e-116	1.2864e-118	2.5772e-121	4.9502e-124	9.1475e-127	1.6329e-129	2.832e-132	4.8183e-135	8.199e-138	1.4537e-140	2.9001e-143	7.1649e-146	2.272e-148	8.7189e-151	3.7424e-153	1.7154e-155	8.247e-158	4.1395e-160	2.1709e-162	1.1925e-164	6.8828e-167	4.188e-169	2.6955e-171	1.8412e-173	1.3392e-175	1.0406e-177	8.6676e-180	7.7634e-182	7.5017e-184	7.845e-186	8.9068e-188	1.1012e-189	1.4873e-191	2.2008e-193	3.5785e-195	6.4122e-197	1.2698e-198	2.7868e-200	6.7961e-202	1.8474e-203	7.0346e-205	2.6526e-204	5.4586e-203	1.2707e-201	3.3147e-200
7.0305e-27	3.658e-26	2.0006e-25	1.1784e-24	7.382e-24	4.7346e-23	2.9921e-22	1.8159e-21	1.0437e-20	5.6443e-20	2.8652e-19	1.3646e-18	6.1015e-18	2.5637e-17	1.0137e-16	3.7767e-16	1.328e-15	4.4133e-15	1.3885e-14	4.1414e-14	1.173e-13	3.1599e-13	8.1083e-13	1.9849e-12	4.6431e-12	1.0394e-11	2.2303e-11	4.5941e-11	9.0992e-11	1.7356e-10	3.1936e-10	5.6779e-10	9.7715e-10	1.6308e-09	2.6448e-09	4.177e-09	6.4397e-09	9.7176e-09	1.4395e-08	2.1e-08	3.0269e-08	4.325e-08	6.1447e-08	8.7012e-08	1.23e-07	1.7367e-07	2.4481e-07	3.4409e-07	4.8134e-07	6.6879e-07	9.2113e-07	1.2554e-06	1.6909e-06	2.2482e-06	2.949e-06	3.8151e-06	4.8674e-06	6.1249e-06	7.604e-06	9.3176e-06	1.1274e-05	1.3478e-05	1.5926e-05	1.8612e-05	2.1522e-05	2.4635e-05	2.7927e-05	3.1366e-05	3.4914e-05	3.8529e-05	4.2166e-05	4.5776e-05	4.9311e-05	5.2722e-05	5.5964e-05	5.8996e-05	6.1781e-05	6.4292e-05	6.651e-05	6.8426e-05	7.0038e-05	7.1358e-05	7.2405e-05	7.3206e-05	7.3797e-05	7.4217e-05	7.4512e-05	7.4727e-05	7.4909e-05	7.5102e-05	7.535e-05	7.569e-05	7.6155e-05	7.6774e-05	7.7573e-05	7.8573e-05	7.9793e-05	8.1253e-05	8.2968e-05	8.4959e-05	8.7241e-05	8.9832e-05	9.2747e-05	9.5994e-05	9.9577e-05	0.00010349	0.00010771	0.00011221	0.00011693	0.0001218	0.00012675	0.00013167	0.00013644	0.00014095	0.00014504	0.0001486	0.00015149	0.0001536	0.0001548	0.00015502	0.00015419	0.00015228	0.00014927	0.00014517	0.00014005	0.00013398	0.00012705	0.00011939	0.00011114	0.00010246	9.3496e-05	8.4424e-05	7.54e-05	6.6574e-05	5.8084e-05	5.005e-05	4.257e-05	3.5718e-05	2.9547e-05	2.4082e-05	1.9325e-05	1.5259e-05	1.1846e-05	9.0349e-06	6.7653e-06	4.9695e-06	3.5782e-06	2.5236e-06	1.7419e-06	1.1758e-06	7.7567e-07	4.9968e-07	3.1412e-07	1.9258e-07	1.1506e-07	6.6965e-08	3.7941e-08	2.0916e-08	1.1214e-08	5.8441e-09	2.9589e-09	1.4545e-09	6.937e-10	3.2073e-10	1.436e-10	6.2186e-11	2.6011e-11	1.0491e-11	4.0732e-12	1.5193e-12	5.4335e-13	1.8592e-13	6.0734e-14	1.8901e-14	5.5922e-15	1.5696e-15	4.1712e-16	1.0474e-16	2.4805e-17	5.5303e-18	1.1587e-18	2.2774e-19	4.1925e-20	7.2172e-21	1.16e-21	1.7382e-22	2.4249e-23	3.145e-24	3.7872e-25	4.229e-26	4.3737e-27	4.1846e-28	3.6997e-29	3.0195e-30	2.2727e-31	1.5761e-32	1.0062e-33	5.9083e-35	3.1889e-36	1.581e-37	7.1954e-39	3.0046e-40	1.1507e-41	4.0398e-43	1.2999e-44	3.8324e-46	1.0352e-47	2.5614e-49	5.8064e-51	1.206e-52	2.2953e-54	4.0045e-56	6.4065e-58	9.4026e-60	1.2667e-61	1.5673e-63	1.7824e-65	1.8647e-67	1.7962e-69	1.5945e-71	1.306e-73	9.8814e-76	6.9148e-78	4.4816e-80	2.694e-82	1.5044e-84	7.8169e-87	3.7858e-89	1.7121e-91	7.2438e-94	2.873e-96	1.0704e-98	3.7545e-101	1.2426e-103	3.8893e-106	1.1542e-108	3.2556e-111	8.7527e-114	2.2495e-116	5.5452e-119	1.3168e-121	3.0307e-124	6.8333e-127	1.5401e-129	3.6085e-132	9.3888e-135	2.9211e-137	1.1152e-139	5.0035e-142	2.4806e-144	1.3054e-146	7.1638e-149	4.0775e-151	2.4072e-153	1.477e-155	9.4467e-158	6.3176e-160	4.4319e-162	3.2719e-164	2.5503e-166	2.1054e-168	1.8469e-170	1.727e-172	1.7267e-174	1.8518e-176	2.1367e-178	2.6607e-180	3.5864e-182	5.2483e-184	8.3624e-186	1.455e-187	2.772e-189	5.7993e-191	1.3359e-192	3.3971e-194	9.5617e-196	2.989e-197	1.4177e-198	6.2886e-198	1.1507e-196	2.3696e-195	5.4441e-194
6.1738e-28	4.5093e-27	3.4158e-26	2.58e-25	1.8848e-24	1.3079e-23	8.5447e-23	5.2349e-22	3.0039e-21	1.6147e-20	8.1363e-20	3.8477e-19	1.7099e-18	7.1498e-18	2.8171e-17	1.0475e-16	3.6805e-16	1.2239e-15	3.8577e-15	1.1542e-14	3.2826e-14	8.8881e-14	2.2946e-13	5.6563e-13	1.3333e-12	3.01e-12	6.5174e-12	1.3555e-11	2.7121e-11	5.2286e-11	9.7281e-11	1.7497e-10	3.0479e-10	5.1521e-10	8.4695e-10	1.3573e-09	2.1264e-09	3.2666e-09	4.9377e-09	7.3713e-09	1.0908e-08	1.6057e-08	2.3576e-08	3.4593e-08	5.0748e-08	7.4387e-08	1.0877e-07	1.5829e-07	2.2868e-07	3.2722e-07	4.6278e-07	6.4586e-07	8.8843e-07	1.2037e-06	1.6056e-06	2.1085e-06	2.7264e-06	3.4721e-06	4.3571e-06	5.3904e-06	6.5782e-06	7.9233e-06	9.425e-06	1.1078e-05	1.2874e-05	1.48e-05	1.6837e-05	1.8964e-05	2.1156e-05	2.3384e-05	2.5617e-05	2.7821e-05	2.9962e-05	3.2007e-05	3.3923e-05	3.568e-05	3.7252e-05	3.8619e-05	3.9767e-05	4.0686e-05	4.1375e-05	4.1842e-05	4.2099e-05	4.2167e-05	4.207e-05	4.1839e-05	4.1507e-05	4.1108e-05	4.0677e-05	4.025e-05	3.9856e-05	3.9524e-05	3.9278e-05	3.9138e-05	3.912e-05	3.9237e-05	3.95e-05	3.9917e-05	4.0497e-05	4.1249e-05	4.2183e-05	4.3309e-05	4.4639e-05	4.618e-05	4.7942e-05	4.9925e-05	5.2126e-05	5.4532e-05	5.7122e-05	5.9861e-05	6.2704e-05	6.5596e-05	6.8469e-05	7.125e-05	7.3856e-05	7.6205e-05	7.8214e-05	7.9804e-05	8.0905e-05	8.1455e-05	8.141e-05	8.0737e-05	7.9426e-05	7.748e-05	7.4924e-05	7.18e-05	6.8163e-05	6.4087e-05	5.9653e-05	5.4952e-05	5.008e-05	4.5134e-05	4.0209e-05	3.5392e-05	3.0766e-05	2.6398e-05	2.2346e-05	1.865e-05	1.5338e-05	1.2421e-05	9.8996e-06	7.7591e-06	5.9764e-06	4.5205e-06	3.3552e-06	2.4419e-06	1.7412e-06	1.2155e-06	8.3004e-07	5.5405e-07	3.6122e-07	2.2985e-07	1.4264e-07	8.627e-08	5.0818e-08	2.9137e-08	1.6252e-08	8.8138e-09	4.6452e-09	2.3781e-09	1.1821e-09	5.7028e-10	2.6686e-10	1.2105e-10	5.3192e-11	2.2621e-11	9.3005e-12	3.6919e-12	1.4129e-12	5.2038e-13	1.8413e-13	6.2466e-14	2.0277e-14	6.2847e-15	1.8561e-15	5.2124e-16	1.389e-16	3.5059e-17	8.3645e-18	1.8831e-18	3.993e-19	7.9621e-20	1.4905e-20	2.6155e-21	4.2957e-22	6.5942e-23	9.4482e-24	1.2619e-24	1.569e-25	1.8141e-26	1.9481e-27	1.9409e-28	1.7922e-29	1.5324e-30	1.212e-31	8.8602e-33	5.9819e-34	3.727e-35	2.1415e-36	1.1341e-37	5.5325e-39	2.485e-40	1.0272e-41	3.9069e-43	1.3667e-44	4.397e-46	1.3007e-47	3.5382e-49	8.8501e-51	2.0358e-52	4.3078e-54	8.3872e-56	1.5031e-57	2.4806e-59	3.772e-61	5.2882e-63	6.8403e-65	8.1697e-67	9.0178e-69	9.2083e-71	8.7077e-73	7.6343e-75	6.2132e-77	4.7003e-79	3.3098e-81	2.1727e-83	1.3317e-85	7.6342e-88	4.1003e-90	2.0672e-92	9.8012e-95	4.3794e-97	1.848e-99	7.3808e-102	2.7969e-104	1.0082e-106	3.467e-109	1.1415e-111	3.6159e-114	1.11e-116	3.3436e-119	1.0111e-121	3.1925e-124	1.1137e-126	4.5201e-129	2.1544e-131	1.1635e-133	6.8037e-136	4.1787e-138	2.6568e-140	1.7402e-142	1.174e-144	8.1734e-147	5.8871e-149	4.4002e-151	3.4232e-153	2.7806e-155	2.3655e-157	2.1142e-159	1.9914e-161	1.9828e-163	2.0932e-165	2.3503e-167	2.815e-169	3.6073e-171	4.9604e-173	7.3406e-175	1.1724e-176	2.0268e-178	3.8028e-180	7.7654e-182	1.7305e-183	4.2194e-185	1.1286e-186	3.3201e-188	1.0768e-189	3.8659e-191	2.3305e-192	1.1787e-191	1.9204e-190	3.5029e-189	7.0986e-188
1.2521e-28	1.1028e-27	9.2285e-27	7.2672e-26	5.3619e-25	3.7007e-24	2.3889e-23	1.4432e-22	8.166e-22	4.3328e-21	2.1584e-20	1.0107e-19	4.4549e-19	1.8508e-18	7.257e-18	2.6893e-17	9.4321e-17	3.1352e-16	9.89e-16	2.965e-15	8.4598e-15	2.3004e-14	5.9697e-14	1.4806e-13	3.5144e-13	7.9948e-13	1.7456e-12	3.6632e-12	7.4002e-12	1.4413e-11	2.7107e-11	4.932e-11	8.698e-11	1.4901e-10	2.4859e-10	4.0504e-10	6.4667e-10	1.0155e-09	1.5748e-09	2.4221e-09	3.7085e-09	5.6708e-09	8.6759e-09	1.3286e-08	2.0342e-08	3.1073e-08	4.7219e-08	7.1171e-08	1.0611e-07	1.5612e-07	2.2628e-07	3.2272e-07	4.525e-07	6.2359e-07	8.4454e-07	1.1243e-06	1.4716e-06	1.895e-06	2.4018e-06	2.9982e-06	3.6885e-06	4.4749e-06	5.3571e-06	6.3322e-06	7.3946e-06	8.5356e-06	9.744e-06	1.1006e-05	1.2304e-05	1.362e-05	1.4933e-05	1.6223e-05	1.7465e-05	1.8639e-05	1.9723e-05	2.0697e-05	2.1544e-05	2.225e-05	2.2806e-05	2.3207e-05	2.3451e-05	2.3542e-05	2.3491e-05	2.331e-05	2.3017e-05	2.2632e-05	2.2179e-05	2.168e-05	2.116e-05	2.0642e-05	2.0147e-05	1.9693e-05	1.9298e-05	1.8972e-05	1.8726e-05	1.8566e-05	1.8499e-05	1.8527e-05	1.8655e-05	1.8887e-05	1.9226e-05	1.9681e-05	2.0256e-05	2.0958e-05	2.1795e-05	2.277e-05	2.3885e-05	2.5136e-05	2.6514e-05	2.8003e-05	2.9581e-05	3.1217e-05	3.2875e-05	3.4512e-05	3.6081e-05	3.7533e-05	3.8818e-05	3.9888e-05	4.0699e-05	4.1212e-05	4.1398e-05	4.1236e-05	4.0715e-05	3.9836e-05	3.8609e-05	3.7058e-05	3.5214e-05	3.3116e-05	3.0813e-05	2.8357e-05	2.5801e-05	2.3201e-05	2.0611e-05	1.8081e-05	1.5656e-05	1.3374e-05	1.1264e-05	9.3496e-06	7.6433e-06	6.1503e-06	4.868e-06	3.7876e-06	2.8949e-06	2.1719e-06	1.5984e-06	1.1529e-06	8.145e-07	5.6311e-07	3.8069e-07	2.5146e-07	1.6217e-07	1.0202e-07	6.2566e-08	3.7374e-08	2.1732e-08	1.2291e-08	6.7581e-09	3.6101e-09	1.8726e-09	9.4277e-10	4.6048e-10	2.1811e-10	1.0014e-10	4.4551e-11	1.9195e-11	8.0044e-12	3.2282e-12	1.2581e-12	4.7321e-13	1.7157e-13	5.9869e-14	2.0073e-14	6.4543e-15	1.9865e-15	5.8408e-16	1.6372e-16	4.3663e-17	1.1057e-17	2.6539e-18	6.0256e-19	1.292e-19	2.6115e-20	4.9684e-21	8.8831e-22	1.4904e-22	2.3432e-23	3.4478e-24	4.7414e-25	6.0871e-26	7.2869e-27	8.1252e-28	8.4301e-29	8.1306e-30	7.2827e-31	6.0531e-32	4.6648e-33	3.3306e-34	2.2017e-35	1.3467e-36	7.6177e-38	3.9828e-39	1.9239e-40	8.5833e-42	3.5357e-43	1.3444e-44	4.7184e-46	1.5283e-47	4.5684e-49	1.2604e-50	3.2098e-52	7.5475e-54	1.6391e-55	3.2888e-57	6.0997e-59	1.0463e-60	1.661e-62	2.4418e-64	3.327e-66	4.2051e-68	4.9349e-70	5.3831e-72	5.4639e-74	5.1669e-76	4.5579e-78	3.7558e-80	2.8952e-82	2.0911e-84	1.4174e-86	9.0319e-89	5.4204e-91	3.0697e-93	1.644e-95	8.3446e-98	4.0252e-100	1.851e-102	8.148e-105	3.454e-107	1.4233e-109	5.7922e-112	2.3889e-114	1.0377e-116	4.9597e-119	2.6811e-121	1.6296e-123	1.0808e-125	7.5822e-128	5.514e-130	4.1159e-132	3.143e-134	2.4557e-136	1.9666e-138	1.6183e-140	1.3721e-142	1.2022e-144	1.0917e-146	1.0306e-148	1.0143e-150	1.044e-152	1.1271e-154	1.2799e-156	1.5335e-158	1.944e-160	2.6152e-162	3.744e-164	5.7206e-166	9.3545e-168	1.6417e-169	3.1006e-171	6.3192e-173	1.3934e-174	3.333e-176	8.671e-178	2.4595e-179	7.6256e-181	2.5905e-182	9.6648e-184	3.9804e-185	3.114e-186	1.7386e-185	2.5253e-184	4.0867e-183	7.3162e-182
3.5971e-29	3.1814e-28	2.6294e-27	2.0305e-26	1.4657e-25	9.8979e-25	6.2591e-24	3.7102e-23	2.064e-22	1.0788e-21	5.3039e-21	2.456e-20	1.0725e-19	4.4218e-19	1.7235e-18	6.3593e-18	2.224e-17	7.3817e-17	2.3283e-16	6.9881e-16	1.9984e-15	5.4522e-15	1.4211e-14	3.5431e-14	8.4616e-14	1.9383e-13	4.2646e-13	9.0253e-13	1.84e-12	3.6193e-12	6.881e-12	1.2669e-11	2.2641e-11	3.9375e-11	6.6844e-11	1.1117e-10	1.8188e-10	2.9406e-10	4.7201e-10	7.5542e-10	1.2093e-09	1.9396e-09	3.1168e-09	5.0086e-09	8.0258e-09	1.278e-08	2.0152e-08	3.1374e-08	4.8111e-08	7.2538e-08	1.074e-07	1.5606e-07	2.2248e-07	3.1115e-07	4.2705e-07	5.7539e-07	7.6148e-07	9.9043e-07	1.2669e-06	1.5947e-06	1.9767e-06	2.4146e-06	2.9083e-06	3.4563e-06	4.0552e-06	4.6998e-06	5.3832e-06	6.0966e-06	6.8298e-06	7.5711e-06	8.308e-06	9.0269e-06	9.714e-06	1.0356e-05	1.0939e-05	1.1452e-05	1.1885e-05	1.2229e-05	1.2477e-05	1.2629e-05	1.2682e-05	1.2641e-05	1.2511e-05	1.2301e-05	1.2023e-05	1.1689e-05	1.1314e-05	1.0912e-05	1.05e-05	1.009e-05	9.6961e-06	9.3295e-06	8.9996e-06	8.7135e-06	8.4764e-06	8.2919e-06	8.1622e-06	8.0887e-06	8.0727e-06	8.1155e-06	8.2194e-06	8.3871e-06	8.6225e-06	8.9297e-06	9.3129e-06	9.7758e-06	1.032e-05	1.0946e-05	1.165e-05	1.2426e-05	1.3262e-05	1.4142e-05	1.5048e-05	1.5957e-05	1.6843e-05	1.7679e-05	1.8435e-05	1.9086e-05	1.9605e-05	1.9971e-05	2.0164e-05	2.0172e-05	1.9988e-05	1.9611e-05	1.9046e-05	1.8306e-05	1.7406e-05	1.637e-05	1.5221e-05	1.399e-05	1.2705e-05	1.1397e-05	1.0094e-05	8.8231e-06	7.6085e-06	6.4694e-06	5.4214e-06	4.4752e-06	3.6367e-06	2.9078e-06	2.286e-06	1.7661e-06	1.3398e-06	9.9737e-07	7.2807e-07	5.2078e-07	3.6472e-07	2.499e-07	1.6739e-07	1.0952e-07	6.994e-08	4.3557e-08	2.6433e-08	1.5619e-08	8.9797e-09	5.0192e-09	2.7257e-09	1.4371e-09	7.3524e-10	3.6478e-10	1.7543e-10	8.1737e-11	3.6883e-11	1.6111e-11	6.8108e-12	2.785e-12	1.1011e-12	4.2067e-13	1.5519e-13	5.5234e-14	1.8945e-14	6.2543e-15	1.9844e-15	6.041e-16	1.7615e-16	4.9104e-17	1.3062e-17	3.3088e-18	7.9678e-19	1.8204e-19	3.939e-20	8.0582e-21	1.556e-21	2.8317e-22	4.8494e-23	7.8039e-24	1.1786e-24	1.6684e-25	2.211e-26	2.7401e-27	3.1722e-28	3.4272e-29	3.4524e-30	3.2397e-31	2.8297e-32	2.2989e-33	1.7359e-34	1.2175e-35	7.9276e-37	4.7895e-38	2.6837e-39	1.3941e-40	6.7119e-42	2.9941e-43	1.2373e-44	4.7363e-46	1.6792e-47	5.5146e-49	1.6776e-50	4.7282e-52	1.235e-53	2.9902e-55	6.7142e-57	1.3987e-58	2.705e-60	4.8592e-62	8.1136e-64	1.2603e-65	1.8226e-67	2.4564e-69	3.0883e-71	3.6261e-73	3.9808e-75	4.0914e-77	3.9421e-79	3.5659e-81	3.0331e-83	2.4299e-85	1.8371e-87	1.3133e-89	8.9002e-92	5.7344e-94	3.5264e-96	2.0811e-98	1.1883e-100	6.6491e-103	3.7175e-105	2.1345e-107	1.2993e-109	8.5977e-112	6.2204e-114	4.8519e-116	3.991e-118	3.3975e-120	2.9589e-122	2.622e-124	2.3605e-126	2.1606e-128	2.0143e-130	1.9174e-132	1.8683e-134	1.8689e-136	1.9244e-138	2.0457e-140	2.2514e-142	2.5725e-144	3.0605e-146	3.8019e-148	4.9454e-150	6.7547e-152	9.715e-154	1.4754e-155	2.3726e-157	4.0508e-159	7.3629e-161	1.4286e-162	2.9669e-164	6.6117e-166	1.5852e-167	4.0994e-169	1.1463e-170	3.4745e-172	1.1443e-173	4.1043e-175	1.6071e-176	6.8847e-178	3.2498e-179	3.3662e-180	2.0094e-179	2.6058e-178	3.7472e-177	5.9359e-176
1.0308e-29	8.8365e-29	7.0826e-28	5.3124e-27	3.7322e-26	2.4583e-25	1.5196e-24	8.8253e-24	4.8203e-23	2.4789e-22	1.2016e-21	5.4962e-21	2.3752e-20	9.7084e-20	3.7579e-19	1.3791e-18	4.8045e-18	1.5908e-17	5.012e-17	1.5045e-16	4.3081e-16	1.1782e-15	3.0815e-15	7.717e-15	1.8528e-14	4.2706e-14	9.463e-14	2.0187e-13	4.1525e-13	8.2509e-13	1.5868e-12	2.9609e-12	5.3752e-12	9.5262e-12	1.6548e-11	2.8308e-11	4.7929e-11	8.0726e-11	1.3585e-10	2.2913e-10	3.8767e-10	6.5731e-10	1.1138e-09	1.879e-09	3.1435e-09	5.1956e-09	8.4579e-09	1.353e-08	2.1233e-08	3.2658e-08	4.9203e-08	7.2603e-08	1.0493e-07	1.486e-07	2.063e-07	2.809e-07	3.7538e-07	4.9266e-07	6.3546e-07	8.0608e-07	1.0063e-06	1.2372e-06	1.4988e-06	1.7906e-06	2.1104e-06	2.4555e-06	2.8219e-06	3.2044e-06	3.597e-06	3.9931e-06	4.3851e-06	4.7652e-06	5.1256e-06	5.4583e-06	5.7558e-06	6.0115e-06	6.2195e-06	6.3754e-06	6.4761e-06	6.5202e-06	6.5081e-06	6.4419e-06	6.3254e-06	6.1641e-06	5.9646e-06	5.7347e-06	5.4829e-06	5.2177e-06	4.9479e-06	4.6814e-06	4.4257e-06	4.1868e-06	3.9699e-06	3.7786e-06	3.6156e-06	3.4823e-06	3.3796e-06	3.3077e-06	3.2667e-06	3.2572e-06	3.2797e-06	3.3355e-06	3.4266e-06	3.5551e-06	3.7235e-06	3.934e-06	4.1882e-06	4.4868e-06	4.8287e-06	5.211e-06	5.6289e-06	6.0749e-06	6.5396e-06	7.0113e-06	7.477e-06	7.9223e-06	8.3324e-06	8.6927e-06	8.9894e-06	9.2104e-06	9.3457e-06	9.3881e-06	9.3333e-06	9.1806e-06	8.9324e-06	8.5944e-06	8.1753e-06	7.6864e-06	7.1408e-06	6.5533e-06	5.939e-06	5.3134e-06	4.6911e-06	4.0856e-06	3.5085e-06	2.9696e-06	2.476e-06	2.0327e-06	1.6423e-06	1.305e-06	1.0193e-06	7.8214e-07	5.8917e-07	4.3539e-07	3.1544e-07	2.2388e-07	1.5556e-07	1.0572e-07	7.0231e-08	4.5565e-08	2.8849e-08	1.781e-08	1.0712e-08	6.2721e-09	3.5722e-09	1.9775e-09	1.0632e-09	5.5472e-10	2.8069e-10	1.3766e-10	6.5387e-11	3.0066e-11	1.3376e-11	5.7553e-12	2.3939e-12	9.622e-13	3.7359e-13	1.4007e-13	5.0684e-14	1.7693e-14	5.9542e-15	1.9302e-15	6.0215e-16	1.8057e-16	5.1978e-17	1.4342e-17	3.7868e-18	9.5518e-19	2.2976e-19	5.2611e-20	1.1447e-20	2.3627e-21	4.6179e-22	8.5337e-23	1.4887e-23	2.4482e-24	3.7902e-25	5.5167e-26	7.5404e-27	9.6675e-28	1.1614e-28	1.3062e-29	1.3738e-30	1.3503e-31	1.2393e-32	1.0613e-33	8.4745e-35	6.3063e-36	4.3709e-37	2.8204e-38	1.6936e-39	9.4604e-41	4.9147e-42	2.374e-43	1.066e-44	4.45e-46	1.7267e-47	6.2283e-49	2.0886e-50	6.5129e-52	1.889e-53	5.0974e-55	1.2803e-56	2.9946e-58	6.5262e-60	1.326e-61	2.5134e-63	4.4484e-65	7.3572e-67	1.1382e-68	1.6486e-70	2.2385e-72	2.8527e-74	3.4166e-76	3.8515e-78	4.0936e-80	4.1103e-82	3.9083e-84	3.5296e-86	3.0397e-88	2.5099e-90	2.0028e-92	1.5621e-94	1.2099e-96	9.4981e-99	7.7247e-101	6.6216e-103	6.0179e-105	5.7625e-107	5.7383e-109	5.8656e-111	6.0965e-113	6.4092e-115	6.8011e-117	7.2849e-119	7.8867e-121	8.6467e-123	9.6228e-125	1.0898e-126	1.2593e-128	1.4886e-130	1.8051e-132	2.2514e-134	2.896e-136	3.8526e-138	5.3146e-140	7.6231e-142	1.14e-143	1.7822e-145	2.9206e-147	5.03e-149	9.129e-151	1.7505e-152	3.5557e-154	7.6705e-156	1.7618e-157	4.3196e-159	1.1333e-160	3.1894e-162	9.652e-164	3.1483e-165	1.1095e-166	4.2337e-168	1.7533e-169	7.8975e-171	3.8776e-172	2.0971e-173	2.926e-174	1.8123e-173	2.1015e-172	2.6898e-171	3.7769e-170
2.7624e-30	2.2841e-29	1.7704e-28	1.2873e-27	8.7886e-27	5.6391e-26	3.4038e-25	1.9345e-24	1.0363e-23	5.2379e-23	2.5005e-22	1.1286e-21	4.8214e-21	1.9517e-20	7.4939e-20	2.7325e-19	9.4726e-19	3.1254e-18	9.8259e-18	2.9469e-17	8.4411e-17	2.3119e-16	6.0619e-16	1.5235e-15	3.6746e-15	8.5176e-15	1.9001e-14	4.086e-14	8.4854e-14	1.7054e-13	3.3258e-13	6.3135e-13	1.1712e-12	2.1328e-12	3.8332e-12	6.8375e-12	1.2169e-11	2.1695e-11	3.8831e-11	6.9753e-11	1.2544e-10	2.2496e-10	4.0052e-10	7.0484e-10	1.2216e-09	2.0794e-09	3.4692e-09	5.6652e-09	9.0489e-09	1.4133e-08	2.1585e-08	3.2242e-08	4.7127e-08	6.7438e-08	9.4535e-08	1.299e-07	1.751e-07	2.3167e-07	3.0111e-07	3.8469e-07	4.8344e-07	5.9799e-07	7.2852e-07	8.7469e-07	1.0356e-06	1.2096e-06	1.3946e-06	1.5878e-06	1.7861e-06	1.9856e-06	2.1823e-06	2.372e-06	2.5502e-06	2.7129e-06	2.856e-06	2.9759e-06	3.0697e-06	3.1352e-06	3.1708e-06	3.1761e-06	3.1516e-06	3.0985e-06	3.0193e-06	2.917e-06	2.7953e-06	2.6586e-06	2.5115e-06	2.3585e-06	2.2043e-06	2.0529e-06	1.9083e-06	1.7734e-06	1.6508e-06	1.5421e-06	1.4485e-06	1.3706e-06	1.3084e-06	1.2619e-06	1.231e-06	1.2156e-06	1.2158e-06	1.2321e-06	1.2654e-06	1.3166e-06	1.3871e-06	1.4781e-06	1.5904e-06	1.7247e-06	1.8808e-06	2.0576e-06	2.2529e-06	2.4635e-06	2.6851e-06	2.9123e-06	3.1387e-06	3.3575e-06	3.5615e-06	3.7434e-06	3.8964e-06	4.0144e-06	4.0924e-06	4.1267e-06	4.1149e-06	4.0567e-06	3.9529e-06	3.8065e-06	3.6214e-06	3.4033e-06	3.1583e-06	2.8937e-06	2.6168e-06	2.3348e-06	2.0548e-06	1.783e-06	1.5249e-06	1.2848e-06	1.066e-06	8.7061e-07	6.9947e-07	5.5256e-07	4.2895e-07	3.2704e-07	2.4473e-07	1.7964e-07	1.2925e-07	9.1088e-08	6.2837e-08	4.2399e-08	2.7962e-08	1.8009e-08	1.1319e-08	6.9366e-09	4.1416e-09	2.4072e-09	1.361e-09	7.4781e-10	3.9903e-10	2.0661e-10	1.0372e-10	5.0452e-11	2.376e-11	1.0826e-11	4.7697e-12	2.0307e-12	8.3504e-13	3.3149e-13	1.2698e-13	4.6915e-14	1.6713e-14	5.7384e-15	1.8982e-15	6.0461e-16	1.8534e-16	5.4644e-17	1.5482e-17	4.2111e-18	1.0984e-18	2.7442e-19	6.5569e-20	1.4962e-20	3.2553e-21	6.7424e-22	1.3273e-22	2.4795e-23	4.3885e-24	7.3486e-25	1.1626e-25	1.7352e-26	2.4406e-27	3.231e-28	4.0215e-29	4.7014e-30	5.1576e-31	5.3049e-32	5.1119e-33	4.6116e-34	3.8922e-35	3.0717e-36	2.2655e-37	1.5609e-38	1.0042e-39	6.0309e-41	3.3801e-42	1.7676e-43	8.624e-45	3.9251e-46	1.6666e-47	6.6017e-49	2.4401e-50	8.4169e-52	2.7104e-53	8.1504e-55	2.2897e-56	6.0126e-58	1.4766e-59	3.3936e-61	7.3047e-63	1.4738e-64	2.7898e-66	4.9602e-68	8.2935e-70	1.3059e-71	1.9398e-73	2.7238e-75	3.6245e-77	4.5859e-79	5.5407e-81	6.4299e-83	7.2234e-85	7.9375e-87	8.6422e-89	9.4589e-91	1.0549e-92	1.2102e-94	1.4319e-96	1.7415e-98	2.1618e-100	2.7192e-102	3.4458e-104	4.3841e-106	5.5922e-108	7.1517e-110	9.1797e-112	1.1846e-113	1.54e-115	2.0216e-117	2.6861e-119	3.6215e-121	4.9667e-123	6.9467e-125	9.9344e-127	1.4563e-128	2.1941e-130	3.4061e-132	5.4623e-134	9.0728e-136	1.5648e-137	2.8097e-139	5.2653e-141	1.0325e-142	2.1239e-144	4.5947e-146	1.0479e-147	2.5261e-149	6.4515e-151	1.7499e-152	5.053e-154	1.557e-155	5.1318e-157	1.8132e-158	6.8838e-160	2.8143e-161	1.2416e-162	5.9246e-164	3.0637e-165	1.7206e-166	1.0666e-167	2.0308e-168	1.2707e-167	1.3198e-166	1.5061e-165	1.878e-164
6.8564e-31	5.4614e-30	4.0884e-29	2.8785e-28	1.9078e-27	1.1912e-26	7.0125e-26	3.8961e-25	2.0447e-24	1.0146e-23	4.7646e-23	2.1195e-22	8.941e-22	3.58e-21	1.362e-20	4.9289e-20	1.6983e-19	5.5773e-19	1.7477e-18	5.2313e-18	1.4974e-17	4.1031e-17	1.0777e-16	2.7162e-16	6.5789e-16	1.5335e-15	3.446e-15	7.48e-15	1.5722e-14	3.2098e-14	6.3885e-14	1.2454e-13	2.3907e-13	4.5462e-13	8.6143e-13	1.6344e-12	3.1137e-12	5.9582e-12	1.1426e-11	2.187e-11	4.1576e-11	7.8129e-11	1.4454e-10	2.6239e-10	4.6638e-10	8.1036e-10	1.3753e-09	2.2788e-09	3.6865e-09	5.8237e-09	8.9872e-09	1.3555e-08	1.9995e-08	2.8861e-08	4.0795e-08	5.6505e-08	7.6747e-08	1.0229e-07	1.3388e-07	1.7217e-07	2.1771e-07	2.7086e-07	3.3175e-07	4.0025e-07	4.7593e-07	5.5803e-07	6.4549e-07	7.3692e-07	8.3068e-07	9.2486e-07	1.0174e-06	1.1062e-06	1.189e-06	1.2636e-06	1.3282e-06	1.381e-06	1.4205e-06	1.4457e-06	1.456e-06	1.4513e-06	1.432e-06	1.3988e-06	1.3531e-06	1.2964e-06	1.2309e-06	1.1586e-06	1.0818e-06	1.0029e-06	9.2405e-07	8.4724e-07	7.7423e-07	7.0645e-07	6.4497e-07	5.9052e-07	5.4351e-07	5.0409e-07	4.722e-07	4.477e-07	4.3039e-07	4.2014e-07	4.1694e-07	4.2091e-07	4.3237e-07	4.5176e-07	4.7966e-07	5.1662e-07	5.6315e-07	6.1956e-07	6.859e-07	7.6179e-07	8.4641e-07	9.3844e-07	1.036e-06	1.1368e-06	1.2381e-06	1.3367e-06	1.4296e-06	1.5133e-06	1.5847e-06	1.6412e-06	1.6802e-06	1.7001e-06	1.6998e-06	1.679e-06	1.6381e-06	1.5784e-06	1.5016e-06	1.4103e-06	1.3072e-06	1.1957e-06	1.0789e-06	9.6003e-07	8.4224e-07	7.2824e-07	6.2036e-07	5.2045e-07	4.2982e-07	3.4928e-07	2.7915e-07	2.1931e-07	1.6928e-07	1.283e-07	9.5432e-08	6.9616e-08	4.9775e-08	3.4859e-08	2.3896e-08	1.6022e-08	1.05e-08	6.721e-09	4.1985e-09	2.5577e-09	1.5182e-09	8.7746e-10	4.9336e-10	2.6965e-10	1.4314e-10	7.3742e-11	3.6839e-11	1.7832e-11	8.357e-12	3.789e-12	1.6608e-12	7.0326e-13	2.875e-13	1.134e-13	4.3131e-14	1.581e-14	5.5823e-15	1.8978e-15	6.2091e-16	1.9543e-16	5.9147e-17	1.7206e-17	4.8082e-18	1.2901e-18	3.3216e-19	8.1996e-20	1.939e-20	4.3884e-21	9.4944e-22	1.9614e-22	3.864e-23	7.2494e-24	1.2935e-24	2.1921e-25	3.5235e-26	5.3646e-27	7.727e-28	1.0516e-28	1.3509e-29	1.6362e-30	1.8666e-31	2.0039e-32	2.023e-33	1.9189e-34	1.7091e-35	1.4285e-36	1.1199e-37	8.2308e-39	5.6692e-40	3.6582e-41	2.211e-42	1.2514e-43	6.6321e-45	3.291e-46	1.5292e-47	6.6536e-49	2.7116e-50	1.0353e-51	3.7044e-53	1.2427e-54	3.9107e-56	1.1551e-57	3.2049e-59	8.3599e-61	2.0523e-62	4.7477e-64	1.0365e-65	2.1397e-67	4.186e-69	7.7838e-71	1.3809e-72	2.3481e-74	3.85e-76	6.1307e-78	9.5612e-80	1.4735e-81	2.2632e-83	3.4876e-85	5.4125e-87	8.4641e-89	1.3313e-90	2.0995e-92	3.3097e-94	5.2027e-96	8.1447e-98	1.2694e-99	1.9706e-101	3.0506e-103	4.7171e-105	7.2992e-107	1.1326e-108	1.7663e-110	2.7746e-112	4.4007e-114	7.0639e-116	1.1503e-117	1.905e-119	3.2159e-121	5.5479e-123	9.8045e-125	1.7793e-126	3.3241e-128	6.4084e-130	1.278e-131	2.6431e-133	5.6825e-135	1.273e-136	2.9791e-138	7.2997e-140	1.8773e-141	5.0795e-143	1.4493e-144	4.3708e-146	1.3964e-147	4.7374e-149	1.7103e-150	6.5854e-152	2.7103e-153	1.1948e-154	5.6539e-156	2.8777e-157	1.5786e-158	9.3517e-160	5.9956e-161	4.2674e-162	1.117e-162	6.9033e-162	6.4325e-161	6.557e-160	7.2738e-159
1.5718e-31	1.2048e-30	8.7014e-30	5.9258e-29	3.808e-28	2.3109e-27	1.3254e-26	7.1897e-26	3.6921e-25	1.7963e-24	8.2878e-24	3.6293e-23	1.5098e-22	5.9724e-22	2.2486e-21	8.0654e-21	2.7587e-20	9.0074e-20	2.8102e-19	8.3862e-19	2.3965e-18	6.5654e-18	1.7265e-17	4.3644e-17	1.0622e-16	2.4941e-16	5.6628e-16	1.247e-15	2.6735e-15	5.6062e-15	1.1563e-14	2.3602e-14	4.7975e-14	9.7615e-14	1.9944e-13	4.0933e-13	8.4191e-13	1.7278e-12	3.52e-12	7.0826e-12	1.4014e-11	2.7177e-11	5.1533e-11	9.5394e-11	1.7223e-10	3.0318e-10	5.2028e-10	8.7058e-10	1.421e-09	2.2635e-09	3.5208e-09	5.3512e-09	7.9521e-09	1.1562e-08	1.646e-08	2.2958e-08	3.1395e-08	4.2121e-08	5.548e-08	7.1785e-08	9.1301e-08	1.1421e-07	1.406e-07	1.7043e-07	2.0351e-07	2.3951e-07	2.7795e-07	3.1819e-07	3.5946e-07	4.0087e-07	4.4144e-07	4.8018e-07	5.1604e-07	5.4804e-07	5.7527e-07	5.9694e-07	6.1241e-07	6.2126e-07	6.2325e-07	6.1839e-07	6.069e-07	5.8924e-07	5.6604e-07	5.3813e-07	5.0645e-07	4.7203e-07	4.3592e-07	3.9918e-07	3.6277e-07	3.2758e-07	2.9436e-07	2.6369e-07	2.3601e-07	2.1157e-07	1.9051e-07	1.7284e-07	1.5848e-07	1.473e-07	1.3919e-07	1.3404e-07	1.3179e-07	1.3247e-07	1.3618e-07	1.4309e-07	1.5343e-07	1.6742e-07	1.8531e-07	2.0724e-07	2.3327e-07	2.6328e-07	2.97e-07	3.3393e-07	3.7334e-07	4.1432e-07	4.5575e-07	4.9639e-07	5.3491e-07	5.6994e-07	6.002e-07	6.2448e-07	6.418e-07	6.514e-07	6.5281e-07	6.459e-07	6.3082e-07	6.0808e-07	5.7843e-07	5.4288e-07	5.0262e-07	4.5895e-07	4.1323e-07	3.6676e-07	3.2081e-07	2.7645e-07	2.3462e-07	1.9604e-07	1.612e-07	1.3039e-07	1.0371e-07	8.1064e-08	6.2245e-08	4.6924e-08	3.4712e-08	2.5182e-08	1.7905e-08	1.247e-08	8.501e-09	5.6691e-09	3.6956e-09	2.3533e-09	1.4628e-09	8.8693e-10	5.2414e-10	3.0167e-10	1.6896e-10	9.2025e-11	4.8699e-11	2.502e-11	1.247e-11	6.0239e-12	2.8185e-12	1.2762e-12	5.5882e-13	2.3644e-13	9.6598e-14	3.8079e-14	1.4474e-14	5.3011e-15	1.8697e-15	6.3464e-16	2.0721e-16	6.5036e-17	1.9614e-17	5.6811e-18	1.5796e-18	4.214e-19	1.0782e-19	2.6442e-20	6.2126e-21	1.3976e-21	3.0084e-22	6.1918e-23	1.2175e-23	2.2853e-24	4.0908e-25	6.9765e-26	1.1323e-26	1.7474e-27	2.5608e-28	3.5604e-29	4.6915e-30	5.8528e-31	6.9064e-32	7.7016e-33	8.1095e-34	8.0567e-35	7.547e-36	6.6616e-37	5.5377e-38	4.3334e-39	3.1909e-40	2.2103e-41	1.4399e-42	8.8206e-44	5.0808e-45	2.752e-46	1.4018e-47	6.7167e-49	3.0282e-50	1.2852e-51	5.1381e-53	1.9362e-54	6.8842e-56	2.312e-57	7.345e-59	2.211e-60	6.32e-62	1.7198e-63	4.4694e-65	1.1133e-66	2.6692e-68	6.1901e-70	1.3956e-71	3.0744e-73	6.6491e-75	1.4172e-76	2.9848e-78	6.2203e-80	1.2832e-81	2.6194e-83	5.2879e-85	1.0551e-86	2.0805e-88	4.0551e-90	7.8173e-92	1.4921e-93	2.8235e-95	5.306e-97	9.9193e-99	1.8483e-100	3.4399e-102	6.4076e-104	1.1972e-105	2.2484e-107	4.2544e-109	8.1281e-111	1.5716e-112	3.0821e-114	6.1452e-116	1.2485e-117	2.5907e-119	5.5033e-121	1.1995e-122	2.689e-124	6.214e-126	1.4837e-127	3.669e-129	9.4177e-131	2.5151e-132	7.0042e-134	2.0387e-135	6.2159e-137	1.9897e-138	6.7017e-140	2.3803e-141	8.9344e-143	3.5517e-144	1.4985e-145	6.7238e-147	3.2154e-148	1.642e-149	8.9722e-151	5.256e-152	3.3073e-153	2.2396e-154	1.6358e-155	1.3417e-156	4.8335e-157	2.8963e-156	2.4256e-155	2.2127e-154	2.188e-153
3.3218e-32	2.4471e-31	1.7031e-30	1.1205e-29	6.973e-29	4.1076e-28	2.2921e-27	1.2124e-26	6.0839e-26	2.8985e-25	1.3121e-24	5.6484e-24	2.3142e-23	9.032e-23	3.3607e-22	1.1933e-21	4.0472e-21	1.3123e-20	4.0725e-20	1.2109e-19	3.4537e-19	9.4624e-19	2.4944e-18	6.3391e-18	1.5569e-17	3.7069e-17	8.5899e-17	1.9468e-16	4.3403e-16	9.58e-16	2.1065e-15	4.6376e-15	1.025e-14	2.2737e-14	5.0472e-14	1.1159e-13	2.4443e-13	5.2769e-13	1.1182e-12	2.3181e-12	4.6911e-12	9.2537e-12	1.7779e-11	3.3257e-11	6.0568e-11	1.0742e-10	1.856e-10	3.1256e-10	5.1332e-10	8.2267e-10	1.2874e-09	1.9687e-09	2.9435e-09	4.3061e-09	6.1678e-09	8.6554e-09	1.1908e-08	1.6071e-08	2.1291e-08	2.7704e-08	3.5426e-08	4.4543e-08	5.5099e-08	6.7085e-08	8.0434e-08	9.5011e-08	1.1061e-07	1.2697e-07	1.4376e-07	1.606e-07	1.7707e-07	1.9272e-07	2.0713e-07	2.1986e-07	2.3052e-07	2.388e-07	2.4442e-07	2.4723e-07	2.4713e-07	2.4417e-07	2.3845e-07	2.3021e-07	2.1973e-07	2.0738e-07	1.9359e-07	1.7878e-07	1.6341e-07	1.4792e-07	1.327e-07	1.181e-07	1.0442e-07	9.1876e-08	8.0618e-08	7.0732e-08	6.2248e-08	5.5147e-08	4.9376e-08	4.4868e-08	4.1553e-08	3.937e-08	3.8286e-08	3.8292e-08	3.9416e-08	4.1713e-08	4.5262e-08	5.0155e-08	5.648e-08	6.4304e-08	7.3659e-08	8.4519e-08	9.6794e-08	1.1031e-07	1.2483e-07	1.4e-07	1.5543e-07	1.7065e-07	1.8517e-07	1.9846e-07	2.1005e-07	2.1946e-07	2.2632e-07	2.3033e-07	2.3132e-07	2.292e-07	2.2405e-07	2.1604e-07	2.0547e-07	1.9271e-07	1.7822e-07	1.6248e-07	1.46e-07	1.2927e-07	1.1276e-07	9.6868e-08	8.1931e-08	6.8203e-08	5.586e-08	4.4994e-08	3.5629e-08	2.7723e-08	2.1187e-08	1.5896e-08	1.1702e-08	8.448e-09	5.9776e-09	4.1431e-09	2.8112e-09	1.8661e-09	1.2112e-09	7.6806e-10	4.7557e-10	2.8731e-10	1.6924e-10	9.7128e-11	5.4271e-11	2.9502e-11	1.559e-11	8.0026e-12	3.9872e-12	1.9268e-12	9.0235e-13	4.0923e-13	1.7959e-13	7.6201e-14	3.1239e-14	1.2365e-14	4.7214e-15	1.7381e-15	6.1643e-16	2.1048e-16	6.9144e-17	2.184e-17	6.6292e-18	1.9324e-18	5.4069e-19	1.4513e-19	3.7351e-20	9.2124e-21	2.1764e-21	4.9225e-22	1.0654e-22	2.2053e-23	4.3634e-24	8.2482e-25	1.4887e-25	2.5639e-26	4.2108e-27	6.5901e-28	9.8219e-29	1.393e-29	1.8787e-30	2.4076e-31	2.9298e-32	3.3831e-33	3.7044e-34	3.844e-35	3.7781e-36	3.5154e-37	3.0951e-38	2.5777e-39	2.0301e-40	1.5117e-41	1.0642e-42	7.0831e-44	4.4576e-45	2.6533e-46	1.4943e-47	7.9677e-49	4.0251e-50	1.9283e-51	8.7707e-53	3.7927e-54	1.5618e-55	6.1366e-57	2.3054e-58	8.3017e-60	2.8728e-61	9.58e-63	3.0871e-64	9.6392e-66	2.9236e-67	8.6324e-69	2.4859e-70	6.9917e-72	1.9228e-73	5.1748e-75	1.3639e-76	3.5229e-78	8.9243e-80	2.2191e-81	5.4217e-83	1.3031e-84	3.085e-86	7.2053e-88	1.6628e-89	3.7982e-91	8.6025e-93	1.9356e-94	4.3349e-96	9.682e-98	2.161e-99	4.8298e-101	1.0832e-102	2.4426e-104	5.5502e-106	1.2735e-107	2.9571e-109	6.9634e-111	1.6666e-112	4.0627e-114	1.011e-115	2.5737e-117	6.7175e-119	1.8016e-120	4.9755e-122	1.4181e-123	4.1806e-125	1.2775e-126	4.0551e-128	1.34e-129	4.6198e-131	1.6652e-132	6.2885e-134	2.4933e-135	1.0401e-136	4.574e-138	2.125e-139	1.045e-140	5.4502e-142	3.0207e-143	1.7824e-144	1.1219e-145	7.5464e-147	5.4342e-148	4.1967e-149	3.4853e-150	3.3157e-151	1.634e-151	9.3579e-151	7.0564e-150	5.7719e-149	5.0979e-148
6.4585e-33	4.5673e-32	3.0591e-31	1.9417e-30	1.1686e-29	6.673e-29	3.6177e-28	1.8633e-27	9.1241e-27	4.2505e-26	1.8852e-25	7.967e-25	3.2104e-24	1.2346e-23	4.5348e-23	1.5924e-22	5.3509e-22	1.7225e-21	5.3181e-21	1.5771e-20	4.4998e-20	1.238e-19	3.2928e-19	8.4971e-19	2.1365e-18	5.2624e-18	1.2774e-17	3.0757e-17	7.3875e-17	1.7771e-16	4.287e-16	1.0355e-15	2.4946e-15	5.9633e-15	1.4071e-14	3.2619e-14	7.4014e-14	1.6393e-13	3.5377e-13	7.4299e-13	1.5177e-12	3.0148e-12	5.8239e-12	1.0944e-11	2.0014e-11	3.5635e-11	6.1811e-11	1.0451e-10	1.7237e-10	2.7748e-10	4.3626e-10	6.7034e-10	1.0073e-09	1.4812e-09	2.1328e-09	3.009e-09	4.1618e-09	5.6467e-09	7.5199e-09	9.8349e-09	1.2638e-08	1.5966e-08	1.9839e-08	2.4256e-08	2.9195e-08	3.4608e-08	4.0417e-08	4.652e-08	5.279e-08	5.9077e-08	6.5218e-08	7.1039e-08	7.6368e-08	8.1038e-08	8.4897e-08	8.7821e-08	8.9711e-08	9.0506e-08	9.0184e-08	8.8763e-08	8.6301e-08	8.289e-08	7.8656e-08	7.3746e-08	6.8329e-08	6.2575e-08	5.666e-08	5.0747e-08	4.4986e-08	3.9503e-08	3.4402e-08	2.9756e-08	2.5615e-08	2.2002e-08	1.8918e-08	1.6349e-08	1.4267e-08	1.2641e-08	1.1439e-08	1.0632e-08	1.0203e-08	1.0144e-08	1.0458e-08	1.1163e-08	1.2283e-08	1.3848e-08	1.589e-08	1.8433e-08	2.1491e-08	2.5062e-08	2.9119e-08	3.361e-08	3.8455e-08	4.3546e-08	4.8748e-08	5.3907e-08	5.8853e-08	6.3412e-08	6.7412e-08	7.0696e-08	7.3128e-08	7.4605e-08	7.5061e-08	7.4471e-08	7.2854e-08	7.0272e-08	6.6821e-08	6.2634e-08	5.7864e-08	5.2678e-08	4.7249e-08	4.1746e-08	3.6324e-08	3.1118e-08	2.6239e-08	2.177e-08	1.7767e-08	1.4258e-08	1.1246e-08	8.7156e-09	6.6334e-09	4.956e-09	3.6331e-09	2.6118e-09	1.8404e-09	1.2704e-09	8.5866e-10	5.6787e-10	3.6728e-10	2.3215e-10	1.4333e-10	8.6368e-11	5.0767e-11	2.9087e-11	1.6234e-11	8.8194e-12	4.6606e-12	2.394e-12	1.1944e-12	5.7841e-13	2.7167e-13	1.2367e-13	5.452e-14	2.3261e-14	9.5974e-15	3.8267e-15	1.4734e-15	5.4745e-16	1.9615e-16	6.7729e-17	2.2521e-17	7.2073e-18	2.2183e-18	6.563e-19	1.8652e-19	5.0893e-20	1.3324e-20	3.3454e-21	8.0512e-22	1.8563e-22	4.0981e-23	8.6592e-24	1.7503e-24	3.3831e-25	6.2498e-26	1.103e-26	1.8588e-27	2.9901e-28	4.5891e-29	6.7168e-30	9.3718e-31	1.246e-31	1.578e-32	1.9027e-33	2.1839e-34	2.3851e-35	2.478e-36	2.4487e-37	2.301e-38	2.0562e-39	1.7471e-40	1.4118e-41	1.0852e-42	7.937e-44	5.5258e-45	3.6641e-46	2.3157e-47	1.3961e-48	8.0358e-50	4.4212e-51	2.328e-52	1.1746e-53	5.6874e-55	2.6465e-56	1.1853e-57	5.117e-59	2.1326e-60	8.5919e-62	3.351e-63	1.2668e-64	4.6475e-66	1.6566e-67	5.7435e-69	1.939e-70	6.3816e-72	2.0498e-73	6.4337e-75	1.9757e-76	5.9437e-78	1.7543e-79	5.0873e-81	1.4517e-82	4.0831e-84	1.1338e-85	3.1134e-87	8.4697e-89	2.2868e-90	6.1388e-92	1.6416e-93	4.381e-95	1.1691e-96	3.1256e-98	8.3885e-100	2.2644e-101	6.1603e-103	1.6924e-104	4.7051e-106	1.3263e-107	3.7986e-109	1.1077e-110	3.2954e-112	1.0023e-113	3.123e-115	9.9896e-117	3.2871e-118	1.115e-119	3.9067e-121	1.4168e-122	5.3297e-124	2.0837e-125	8.4835e-127	3.6044e-128	1.6012e-129	7.452e-131	3.6407e-132	1.8706e-133	1.0128e-134	5.7896e-136	3.5004e-137	2.2426e-138	1.5252e-139	1.103e-140	8.4979e-142	6.9861e-143	6.1388e-144	5.786e-145	6.449e-146	4.2898e-146	2.3223e-145	1.5798e-144	1.161e-143	9.1781e-143
1.1531e-33	7.8168e-33	5.0315e-32	3.0767e-31	1.7882e-30	9.8839e-30	5.1986e-29	2.6035e-28	1.2422e-27	5.6508e-27	2.4525e-26	1.0163e-25	4.0239e-25	1.5238e-24	5.5239e-24	1.9192e-23	6.3988e-23	2.0507e-22	6.3297e-22	1.8865e-21	5.4464e-21	1.5295e-20	4.1984e-20	1.133e-19	3.0246e-19	8.0312e-19	2.1301e-18	5.6527e-18	1.4995e-17	3.9632e-17	1.0388e-16	2.6865e-16	6.8239e-16	1.696e-15	4.1125e-15	9.71e-15	2.2295e-14	4.9746e-14	1.0783e-13	2.2704e-13	4.6449e-13	9.236e-13	1.7858e-12	3.359e-12	6.1503e-12	1.0968e-11	1.9062e-11	3.2308e-11	5.3432e-11	8.6282e-11	1.3612e-10	2.0995e-10	3.1676e-10	4.6778e-10	6.7652e-10	9.5878e-10	1.3322e-09	1.816e-09	2.4296e-09	3.1921e-09	4.1203e-09	5.2277e-09	6.5223e-09	8.0055e-09	9.6704e-09	1.1501e-08	1.3472e-08	1.5546e-08	1.768e-08	1.9821e-08	2.1911e-08	2.3888e-08	2.569e-08	2.7259e-08	2.854e-08	2.9489e-08	3.0074e-08	3.0274e-08	3.0083e-08	2.9511e-08	2.8579e-08	2.7325e-08	2.5795e-08	2.4042e-08	2.2128e-08	2.0113e-08	1.8059e-08	1.6022e-08	1.4051e-08	1.219e-08	1.047e-08	8.9158e-09	7.5395e-09	6.3466e-09	5.3348e-09	4.4965e-09	3.8205e-09	3.2938e-09	2.9037e-09	2.6394e-09	2.4927e-09	2.4596e-09	2.5399e-09	2.7373e-09	3.0588e-09	3.5134e-09	4.1105e-09	4.8585e-09	5.7626e-09	6.8229e-09	8.0331e-09	9.3789e-09	1.0837e-08	1.2376e-08	1.3957e-08	1.5531e-08	1.7048e-08	1.8453e-08	1.9694e-08	2.0722e-08	2.1493e-08	2.1975e-08	2.2146e-08	2.1998e-08	2.1536e-08	2.0779e-08	1.9756e-08	1.8509e-08	1.7085e-08	1.5534e-08	1.3912e-08	1.2269e-08	1.0652e-08	9.1034e-09	7.6556e-09	6.3335e-09	5.1531e-09	4.122e-09	3.2404e-09	2.5026e-09	1.898e-09	1.4131e-09	1.0322e-09	7.3947e-10	5.1929e-10	3.573e-10	2.4074e-10	1.5875e-10	1.0241e-10	6.458e-11	3.9792e-11	2.3941e-11	1.4057e-11	8.0493e-12	4.4923e-12	2.4419e-12	1.2921e-12	6.6499e-13	3.3269e-13	1.6169e-13	7.6281e-14	3.4912e-14	1.549e-14	6.6578e-15	2.7704e-15	1.1153e-15	4.3409e-16	1.6324e-16	5.927e-17	2.0765e-17	7.0153e-18	2.2841e-18	7.1621e-19	2.1617e-19	6.2767e-20	1.7522e-20	4.7003e-21	1.211e-21	2.995e-22	7.1068e-23	1.6173e-23	3.5281e-24	7.3746e-25	1.4764e-25	2.8301e-26	5.192e-27	9.1133e-28	1.53e-28	2.456e-29	3.7688e-30	5.5269e-31	7.7445e-32	1.0367e-32	1.3255e-33	1.6187e-34	1.8877e-35	2.1024e-36	2.2362e-37	2.2717e-38	2.2044e-39	2.0439e-40	1.8111e-41	1.5343e-42	1.2432e-43	9.6396e-45	7.1565e-46	5.0903e-47	3.4714e-48	2.2714e-49	1.4273e-50	8.62e-52	5.0083e-53	2.802e-54	1.511e-55	7.8619e-57	3.9508e-58	1.9195e-59	9.0255e-61	4.1117e-62	1.8167e-63	7.7942e-65	3.2505e-66	1.3192e-67	5.2168e-69	2.0126e-70	7.5846e-72	2.7958e-73	1.0094e-74	3.5746e-76	1.2435e-77	4.2554e-79	1.4349e-80	4.7747e-82	1.5705e-83	5.1144e-85	1.6518e-86	5.3e-88	1.6923e-89	5.3872e-91	1.7127e-92	5.4481e-94	1.7371e-95	5.562e-97	1.7918e-98	5.8181e-100	1.9079e-101	6.3306e-103	2.1295e-104	7.2757e-106	2.5299e-107	8.9698e-109	3.2492e-110	1.2048e-111	4.582e-113	1.7908e-114	7.2063e-116	2.9917e-117	1.2838e-118	5.7051e-120	2.6307e-121	1.2611e-122	6.2965e-124	3.2806e-125	1.7869e-126	1.0194e-127	6.1025e-129	3.8399e-130	2.5443e-131	1.7784e-132	1.3134e-133	1.0268e-134	8.5103e-136	7.4906e-137	7.0126e-138	6.9945e-139	7.4709e-140	9.8983e-141	8.6995e-141	4.4166e-140	2.7157e-139	1.7968e-138	1.2741e-137
